ply
format ascii 1.0
comment Created by Open3D
element vertex 955
property double x
property double y
property double z
property double nx
property double ny
property double nz
end_header
6.20087 22.2865 -71.6578 0.859535 0.342176 -0.379625
3.76864 25.5479 -72.263 0.642932 0.723854 -0.250347
7.73772 13.4525 -71.8328 0.881372 0.0647819 -0.467961
9.36845 7.9203 -70.0856 0.390258 -0.00128046 -0.920705
8.13102 17.2405 -70.5888 0.79909 0.11005 -0.591053
8.88312 26.898 -63.7229 0.0312879 0.979022 -0.201337
9.36302 24.3948 -67.3122 0.163483 0.52039 -0.838134
4.93481 26.9781 -64.5416 0.0567531 0.994958 -0.0826943
8.55776 21.6323 -68.94 0.538162 0.294825 -0.789595
7.81695 9.93381 -71.8548 0.877775 0.00611795 -0.479033
2.2355 -12.5487 -76.9131 0.873542 -0.343113 0.345252
6.2975 5.45324 -75.6207 0.956528 -0.0241544 -0.290637
5.97967 0.989007 -76.0583 0.963544 -0.0792595 -0.255542
6.1791 4.91904 -78.5541 0.962727 -0.1176 0.243573
6.26089 1.34211 -80.0564 0.887789 -0.156659 0.432769
0.477759 -15.15 -76.1102 0.637132 -0.385445 0.667454
3.88392 -9.23071 -78.9328 0.944308 -0.229252 0.236064
2.07946 -12.3217 -73.4215 0.569929 -0.814792 -0.106278
5.3268 -1.64072 -78.2604 0.989564 -0.142775 0.0194527
19.3114 -12.9777 -70.6685 -0.0754034 -0.997088 -0.0113723
20.8449 -16.0236 -75.692 -0.394299 -0.350873 0.849362
16.4751 -10.4452 -74.8763 -0.820109 -0.523806 -0.230325
18.3811 -12.6264 -74.0269 -0.607879 -0.793985 -0.00843656
14.0568 3.66112 -76.9476 -0.993592 -0.0627511 -0.0940091
14.5096 -0.535869 -77.7558 -0.989201 -0.103249 -0.104022
13.3329 3.28483 -80.1621 -0.851271 -0.161911 0.499122
15.7001 -7.32755 -78.7994 -0.967097 -0.223959 0.12069
13.7517 6.32296 -78.1913 -0.957058 -0.115417 0.265932
13.3793 18.6667 -73.0389 -0.920152 0.169671 -0.352892
16.3044 24.7504 -74.8734 -0.804539 0.558921 -0.200807
20.0882 26.8985 -75.5229 -0.106753 0.99384 -0.0297652
14.8322 23.7911 -72.366 -0.829902 0.458234 -0.318252
18.857 26.9734 -69.5398 -0.0894748 0.995108 -0.0418835
17.4648 26.3822 -72.2286 -0.428812 0.891194 -0.147969
10.2047 12.6968 -69.845 -0.193743 0.0402309 -0.980227
14.9496 26.9713 -64.5435 -0.056668 0.994957 -0.0827582
13.3236 24.9157 -68.3641 -0.552527 0.654641 -0.515906
12.6259 14.773 -72.3843 -0.911139 0.0630625 -0.407244
11.2657 16.509 -70.0556 -0.653529 0.112281 -0.748527
12.0174 10.0142 -71.5543 -0.840241 0.00611827 -0.542179
16.0726 26.7191 -67.6854 -0.223193 0.959096 -0.174125
12.2513 19.682 -70.4192 -0.785981 0.21188 -0.580811
4.91682 -7.42373 -74.9679 0.915176 -0.302295 -0.266591
0.862117 -12.97 -70.2417 0.0573751 -0.997935 -0.0288724
9.96905 -1.99018 -69.5929 0.0583618 -0.102308 -0.993039
7.39943 5.65806 -72.6081 0.910248 -0.0232453 -0.413411
7.60424 0.377433 -71.7748 0.858616 -0.0816433 -0.506076
7.74785 -3.59034 -70.8 0.801766 -0.172176 -0.572299
6.41541 -1.97907 -73.8455 0.92624 -0.126638 -0.355024
4.64458 -10.682 -71.4393 0.724033 -0.582923 -0.368751
6.00837 -7.65903 -71.9461 0.848394 -0.300188 -0.436021
5.27039 -4.48344 -76.2393 0.946557 -0.179173 -0.26819
9.81916 4.07777 -69.9212 0.174988 -0.0162776 -0.984436
6.49837 -12.8072 -64.9535 0.120419 -0.957948 -0.260452
8.28368 -9.36603 -68.2604 0.362583 -0.456771 -0.812339
2.38424 -12.9779 -67.158 0.08429 -0.994796 -0.0572303
15.0888 -7.3694 -75.0392 -0.913624 -0.302304 -0.271853
14.3641 -3.66469 -75.4794 -0.948409 -0.148048 -0.28036
13.3959 6.33953 -74.7168 -0.941154 -0.0144094 -0.33767
12.1234 6.53574 -71.7286 -0.861109 -0.0165063 -0.508152
12.8305 3.32073 -72.9728 -0.918404 -0.029899 -0.394513
13.2497 0.0289479 -73.505 -0.930066 -0.0866647 -0.357025
17.3049 -12.8508 -68.4786 -0.178556 -0.978512 -0.103116
14.9255 -9.53463 -72.1608 -0.812983 -0.457469 -0.36025
13.7135 -6.60524 -72.0471 -0.863764 -0.240087 -0.443024
12.9374 -3.19171 -71.9972 -0.883369 -0.123744 -0.452047
13.5048 -12.9825 -63.5644 -0.0397917 -0.994892 -0.0927769
10.8439 -11.9673 -65.8769 -0.111573 -0.780351 -0.615308
11.1402 -4.95947 -69.4659 -0.49926 -0.168584 -0.849894
14.2105 -12.4227 -66.6488 -0.287305 -0.886167 -0.363544
13.2143 -9.91415 -69.0569 -0.591658 -0.519021 -0.616893
5.2203 -8.54522 -82.7743 0.950943 -0.220102 0.217401
8.38413 0.152395 -91.453 0.965017 -0.258836 0.0417907
7.93874 10.266 -79.9108 0.781607 -0.185456 0.595564
9.96848 7.93224 -86.3118 0.953325 -0.246395 0.174532
-0.805023 -18.9038 -76.2243 0.407321 -0.109852 0.906654
5.46268 -5.21347 -81.0313 0.93187 -0.187757 0.310429
6.17625 -6.0755 -84.7223 0.959644 -0.238116 0.149612
5.67379 -9.24005 -87.6431 0.964473 -0.252585 0.077415
5.28225 -11.3481 -90.927 0.964904 -0.259944 0.037263
4.77807 -12.1823 -86.1978 0.961823 -0.25501 0.0993274
3.13841 -14.8129 -80.2737 0.935451 -0.223625 0.273721
1.75411 -17.1224 -78.1945 0.835709 -0.193825 0.513831
1.46157 -20.7948 -79.918 0.927261 -0.270654 0.258715
2.4771 -20.8293 -87.0037 0.961555 -0.266733 0.0653135
4.17463 -12.3747 -82.1607 0.954417 -0.231668 0.188199
2.91474 -17.5807 -82.5377 0.95798 -0.252658 0.13579
3.55572 -16.7791 -86.4126 0.962692 -0.261264 0.0704579
3.49559 -17.8014 -89.9598 0.963654 -0.262306 0.0506655
7.88492 -1.15748 -88.6443 0.965916 -0.253694 0.051428
8.65429 2.73095 -86.3676 0.956089 -0.243629 0.162905
6.04937 -8.48854 -90.899 0.965313 -0.258423 0.0372631
6.47253 -6.34778 -87.9963 0.962588 -0.256104 0.0885116
7.17634 -2.85044 -85.9662 0.95953 -0.240941 0.145773
7.7966 1.79595 -83.5031 0.933836 -0.209755 0.289747
6.74511 -1.88748 -82.7823 0.9293 -0.208211 0.305042
8.21058 6.96899 -81.5883 0.882646 -0.202971 0.423956
12.8209 -3.4443 -87.3417 -0.963099 -0.254162 0.0885579
10.308 5.49706 -89.2542 -0.964219 -0.255688 0.0700384
10.2005 10.0233 -83.6023 -0.908904 -0.2288 0.348632
18.3268 -16.4295 -77.8191 -0.794867 -0.179855 0.579516
34.0498 -17.0483 -74.9273 -0.00319956 -0.000857174 0.999994
16.5699 -17.7751 -88.5956 -0.963649 -0.262334 0.0506016
11.0596 2.20197 -91.6086 -0.965054 -0.258631 0.0421959
12.1972 -1.91141 -90.7834 -0.965571 -0.257562 0.0365209
14.7697 -11.56 -91.0236 -0.965246 -0.258696 0.0371057
16.0374 -16.3771 -91.5966 -0.965252 -0.25819 0.0403428
16.1496 -11.732 -80.3011 -0.930765 -0.202352 0.304516
13.6078 -6.64851 -87.9925 -0.963112 -0.256314 0.0819607
17.0594 -16.0937 -80.7042 -0.945604 -0.240317 0.219274
19.8022 -20.2475 -77.2067 -0.745067 -0.208718 0.633492
14.4897 -9.95263 -87.962 -0.962818 -0.258821 0.0774172
15.1001 -11.1949 -85.0341 -0.96359 -0.248252 0.099324
15.9042 -13.5663 -83.4184 -0.962018 -0.241815 0.126674
16.9708 -18.0565 -84.5089 -0.958828 -0.268658 0.0920414
17.5288 -21.089 -87.8795 -0.961672 -0.266862 0.0630248
13.3675 -0.880001 -81.7988 -0.914247 -0.194886 0.355206
10.9792 4.66845 -85.6728 -0.956953 -0.240285 0.162802
12.0073 6.02931 -81.5691 -0.884385 -0.195481 0.423852
16.0238 -15.3468 -86.8721 -0.962777 -0.261307 0.0691303
14.7206 -7.26158 -81.8458 -0.952249 -0.211015 0.220667
13.7041 -3.81705 -82.7335 -0.929298 -0.208211 0.305046
12.1286 2.31226 -83.384 -0.931986 -0.217725 0.289824
12.1986 -0.250863 -85.79 -0.959532 -0.240939 0.14576
11.3415 2.08058 -87.7565 -0.962344 -0.245921 0.11583
37.2836 -2.6601 -99.9265 0 -0 -1
25.4403 -7.27154 -99.9265 0 -0 -1
43.2655 -4.35731 -99.9265 0 -0 -1
47.9276 -0.799698 -99.9265 0 -0 -1
21.6911 -6.83873 -99.9265 0 -0 -1
49.3882 -4.72107 -99.9265 0 -0 -1
42.0264 -1.51682 -99.9265 0 -0 -1
51.2846 -1.52972 -99.9265 0 -0 -1
29.567 -7.04239 -99.9265 0 -0 -1
19.7031 -10.0132 -99.9265 0 0 -1
39.095 -6.98142 -99.9265 0 0 -1
45.6555 -6.29947 -99.9265 0 0 -1
31.6462 -9.47359 -99.9265 0 0 -1
16.6116 -11.056 -99.9265 0 0 -1
17.4256 -14.3386 -99.9265 0 0 -1
27.892 -9.5932 -99.9265 0 0 -1
35.3809 -9.37141 -99.9265 0 0 -1
23.7277 -9.76321 -99.9265 0 0 -1
33.3454 -3.2606 -99.7247 -0.228945 0.855717 -0.464039
50.2004 1.42869 -99.3912 -0.229228 0.855495 -0.464309
18.6589 -6.96022 -99.3074 -0.20659 0.77101 -0.602382
15.233 -7.66096 -99.0349 -0.207716 0.770775 -0.602295
27.4114 -4.31314 -98.9506 -0.207716 0.770775 -0.602295
39.3128 -0.462781 -98.4194 -0.144499 0.539274 -0.829641
30.0202 -2.59352 -98.2366 -0.106722 0.398291 -0.91103
47.6618 2.93236 -97.9846 -0.0645987 0.241084 -0.968352
43.3212 2.14164 -97.946 -0.0215425 0.0803978 -0.99653
33.4324 2.77858 -99.8601 0.23432 -0.874494 -0.424681
50.2752 6.4533 -98.7212 0.186515 -0.689426 -0.699931
27.3109 -0.364582 -98.2993 0.115873 -0.433674 -0.893589
24.0747 -1.34523 -98.2384 0.116174 -0.433566 -0.893602
17.8137 -3.50079 -98.0675 0.0772356 -0.289017 -0.954203
37.1059 1.60827 -98.0479 0.0774381 -0.289002 -0.954191
14.9194 -4.44214 -98.0159 0.0774381 -0.289002 -0.954191
32.5869 -0.153097 -97.95 0.0371628 -0.138621 -0.989648
21.5559 -3.37533 -97.9286 0.00828846 -0.030933 -0.999487
16.0613 -21.2405 -96.1194 -0.96449 -0.25833 0.0550008
12.891 -10.0638 -99.201 -0.964464 -0.258425 0.0549979
14.1422 -14.8533 -99.7649 -0.964466 -0.258435 0.0549211
15.3403 -18.3113 -94.9985 -0.964469 -0.258417 0.0549593
13.887 -13.2557 -96.7296 -0.964468 -0.25842 0.0549611
11.6169 -4.68333 -96.2581 -0.964466 -0.258428 0.0549534
13.2399 -10.6109 -95.6495 -0.964466 -0.258428 0.0549535
12.6366 -7.90759 -93.5246 -0.964466 -0.258428 0.0549533
10.5459 -0.16969 -93.8292 -0.964466 -0.258428 0.0549531
11.7689 1.77416 -99.9265 0 0 -1
8.22708 3.52642 -99.9265 0 0 -1
14.7425 3.13167 -99.9265 0 0 -1
50.7151 10.5264 -99.9265 0 -0 -1
41.048 8.46733 -99.9265 0 -0 -1
44.3617 7.68988 -99.9265 0 -0 -1
36.4814 9.0325 -99.9265 0 -0 -1
46.0999 10.5575 -99.9265 0 -0 -1
30.2521 2.39341 -99.9265 0 -0 -1
36.114 5.47332 -99.9265 0 -0 -1
19.6805 3.06273 -99.9265 0 -0 -1
40.131 5.3551 -99.9265 0 -0 -1
14.2086 -0.234652 -99.9265 0 -0 -1
17.8136 -0.553691 -99.9265 0 -0 -1
47.1435 6.52302 -99.9265 0 -0 -1
26.3972 5.38694 -99.9265 0 -0 -1
21.9137 5.84855 -99.9265 0 -0 -1
31.8947 5.73026 -99.9265 0 -0 -1
24.7617 1.46311 -99.9265 0 -0 -1
21.5969 0.119066 -99.9265 0 -0 -1
11.7485 -2.95496 -99.9265 0 -0 -1
-24.9315 8.66035 -99.9265 0 0 -1
-18.5539 5.53 -99.9265 0 0 -1
-30.6465 10.5127 -99.9265 0 0 -1
-28.3947 8.16647 -99.9265 0 0 -1
-9.37127 1.91282 -99.9265 0 0 -1
-24.7087 11.7586 -99.9265 0 0 -1
-12.5071 5.78382 -99.9265 0 0 -1
-21.0248 7.52032 -99.9265 0 0 -1
-5.89478 1.79735 -99.9265 0 0 -1
-16.5035 8.82728 -99.9265 0 0 -1
-8.26044 4.74387 -99.9265 0 0 -1
-12.4884 9.03974 -99.9265 0 0 -1
-4.80505 5.21514 -99.9265 0 0 -1
6.71666 -0.758504 -99.9265 0 0 -1
-1.96492 2.34551 -99.9265 0 0 -1
1.73632 2.42983 -99.9265 0 0 -1
5.245 2.54689 -99.9265 0 0 -1
12.9599 -4.71242 -91.7904 -0.68285 -0.18297 -0.707275
14.3497 -14.1087 -92.7667 -0.952567 -0.255378 0.165523
16.2689 -20.5565 -92.3314 -0.771995 -0.206994 0.60098
7.98414 -3.295 -91.9685 0.211209 -0.056498 0.975807
4.20641 -15.1692 -91.8219 0.682904 -0.182974 -0.707222
31.8681 -35.3021 -91.9265 0 0 1
20.2203 -27.7642 -91.9265 0 0 1
24.8606 -32.0681 -91.9265 0 0 1
16.2298 29.9891 -91.9265 0 0 1
19.0123 31.85 -91.9265 0 0 1
-27.8516 15.6245 -91.9265 0 0 1
-17.0744 -35.2314 -91.9265 0 0 1
26.4819 33.7305 -91.9265 0 0 1
29.4895 34.2385 -91.9265 0 0 1
6.41077 27.484 -91.9265 0 0 1
-7.82413 -33.982 -91.9265 0 0 1
-33.6769 -26.4404 -91.9265 0 0 1
-3.07739 -30.7605 -91.9265 0 0 1
49.5314 -30.4833 -91.9265 0 0 1
43.8158 -33.6331 -91.9265 0 0 1
-29.639 4.53012 -97.9656 -0.0371647 -0.138701 -0.989637
-8.8107 -0.846334 -97.9942 -0.0371251 -0.138554 -0.989659
-4.47419 -1.43924 -98.1499 -0.0774649 -0.289104 -0.954158
-18.6902 2.92245 -98.4132 -0.152321 -0.56847 -0.80848
3.60075 -2.58045 -98.7598 -0.184807 -0.68971 -0.700105
-1.36285 -1.23128 -98.7787 -0.184807 -0.68971 -0.700105
-15.6168 3.0995 -99.3706 -0.212537 -0.793196 -0.570674
-23.1654 5.13492 -99.3884 -0.21259 -0.7934 -0.570371
2.39711 -12.7022 -99.9265 0 0 -1
-9.15813 -7.53092 -99.9265 0 0 -1
-8.11836 -11.0806 -99.9265 0 0 -1
-4.62655 -10.1731 -99.9265 0 0 -1
7.00915 -10.1343 -99.9265 0 0 -1
-2.62145 -13.0725 -99.9265 0 0 -1
1.17903 -9.99207 -99.9265 0 0 -1
-13.0931 -8.42644 -99.9265 0 0 -1
5.8811 -14.7468 -99.9265 0 0 -1
-4.99214 -5.64792 -99.9265 0 0 -1
-22.3636 -4.40819 -99.9265 0 0 -1
-14.6067 -4.44878 -99.9265 0 0 -1
-31.2987 -1.40134 -99.9265 0 0 -1
-18.3475 -3.75799 -99.9265 0 0 -1
-11.6505 -5.50785 -99.9265 0 0 -1
-26.5967 -2.27256 -99.9265 0 0 -1
9.086 -2.42101 -97.9397 0.96445 -0.25848 0.0549847
9.95841 0.962216 -97.3402 0.964465 -0.258436 0.0549435
3.53272 -22.8573 -96.5823 0.964461 -0.258449 0.0549422
4.06528 -21.5219 -99.6487 0.96446 -0.258453 0.0549448
4.5244 -19.2936 -97.2271 0.964452 -0.258495 0.0548924
5.93885 -13.9441 -96.8947 0.964467 -0.258422 0.0549686
4.30799 -19.3662 -93.7707 0.964466 -0.258432 0.054937
8.30712 -4.66017 -94.7994 0.964466 -0.258432 0.054937
7.26098 -8.99534 -96.8268 0.964466 -0.258432 0.054937
6.86914 -9.82339 -93.843 0.964466 -0.258432 0.054937
8.10581 -6.04142 -97.7629 0.964466 -0.258432 0.0549359
0.717706 -4.07363 -97.9279 0.0214649 0.0801082 -0.996555
-16.4651 0.0908358 -97.9633 0.0214648 0.0801078 -0.996555
-22.8795 1.76577 -97.9668 0.0214647 0.0801075 -0.996555
-12.7553 -1.74448 -98.1859 0.106702 0.398215 -0.911065
4.83177 -6.93071 -98.4186 0.144559 0.539498 -0.829485
1.40896 -6.88547 -99.1888 0.206593 0.771016 -0.602373
-8.09448 -4.29116 -99.1275 0.206593 0.771016 -0.602373
-20.7903 -0.941363 -99.1941 0.206597 0.771031 -0.602352
-2.02187 -6.12009 -99.3886 0.229263 0.855621 -0.464061
-28.3697 0.815827 -99.6172 0.229283 0.855692 -0.463919
-13.931 -17.1829 86.7009 -0.464764 -0.503145 0.728588
54.8902 21.1224 66.9492 0.901744 0.281809 0.327783
17.3311 39.3534 87.4689 0.152978 0.648446 0.745732
17.9326 36.0798 89.9505 0.167894 0.581934 0.795716
20.7795 27.7199 94.2806 0.225109 0.415384 0.881353
35.1053 -7.12216 90.9387 0.499066 -0.277645 0.820881
39.1232 -5.60363 88.7041 0.584058 -0.251822 0.771661
35.1018 3.03111 93.1283 0.499077 -0.0920048 0.86166
31.0941 9.81749 95.3138 0.42146 0.0567832 0.905068
28.9937 16.8238 95.2568 0.379788 0.19777 0.903686
24.0664 31.6208 91.2494 0.29093 0.495193 0.818623
22.5364 47.5524 76.4865 0.249067 0.819579 0.516
54.7322 14.4248 71.1213 0.891265 0.156217 0.425726
54.4094 6.13593 72.9971 0.8951 -0.0119643 0.445705
-26.096 -12.7248 78.4856 -0.718122 -0.381833 0.581812
-31.357 -8.73353 73.3297 -0.831165 -0.302568 0.466494
-34.1536 -5.68076 69.7512 -0.885378 -0.257784 0.38685
-34.5414 7.07094 72.7728 -0.889072 -0.0119661 0.457611
-34.2403 10.2138 73.1216 -0.893762 0.0723552 0.442666
-34.7098 28.5795 55.8971 -0.892237 0.436591 0.11533
-1.42125 50.6456 71.6238 -0.0214909 0.894601 0.446349
-2.04629 45.4216 79.7024 -0.2512 0.767156 0.590229
-4.84406 34.3104 89.2233 -0.288951 0.547126 0.785596
-4.97324 27.2212 93.2769 -0.31452 0.402487 0.859699
-11.2 11.999 95.067 -0.413376 0.114397 0.903346
-14.98 4.32674 93.2828 -0.490636 -0.0541141 0.869683
-18.1283 -4.41114 89.7993 -0.591437 -0.219949 0.775773
-21.0545 -6.70813 86.7721 -0.608094 -0.262035 0.749372
-12.5093 -2.94218 93.5906 -0.441712 -0.203405 0.873794
-8.70876 4.38556 96.3576 -0.359072 -0.0504206 0.931947
-1.71458 22.7498 96.0492 -0.231324 0.315661 0.920243
-0.9787 26.1067 94.9528 -0.221082 0.390122 0.893827
1.28449 33.9568 91.2595 -0.169715 0.547118 0.81967
2.061 39.3249 87.3703 -0.151279 0.648449 0.746076
2.12011 41.6986 85.1921 -0.153027 0.700783 0.696768
2.5345 47.9323 77.7942 -0.143944 0.824297 0.547553
15.1801 56.7197 50.3392 0.105276 0.994436 0.00367658
4.07656 56.6402 50.4625 -0.105022 0.994436 0.00817737
12.5632 56.869 52.4316 0.0458462 0.997996 0.0436088
3.59999 56.2208 56.0643 -0.133777 0.982816 0.127189
5.96439 56.7157 53.3909 -0.0822676 0.994436 0.0657935
16.9144 55.7428 58.7976 0.116178 0.974188 0.193545
14.1129 56.4456 56.1683 0.0827988 0.989102 0.121741
2.99056 55.6713 59.0936 -0.130213 0.974171 0.184485
11.0424 56.6498 55.8254 0.0178994 0.994436 0.103808
11.7711 56.1676 58.934 0.0399829 0.982011 0.184543
2.90648 54.829 62.805 -0.146106 0.952465 0.267327
6.31869 56.2707 57.7349 -0.0853865 0.982012 0.168411
16.4215 54.0453 65.7198 0.131496 0.936361 0.32548
17.2569 52.4116 69.695 0.141786 0.91314 0.382193
14.2523 55.4321 61.7365 0.0770271 0.973162 0.216845
4.19786 53.7474 66.8027 -0.117555 0.936311 0.330912
5.73236 55.4501 61.65 -0.077027 0.973163 0.216844
8.95371 56.887 53.0958 -0.0211959 0.997996 0.0596199
16.1988 50.805 73.358 0.118168 0.884452 0.451421
3.56677 49.9365 74.8519 -0.127512 0.863975 0.487123
16.0729 47.6436 78.5343 0.12161 0.818433 0.561585
13.5889 53.5992 67.8177 0.0743958 0.936313 0.343196
3.52328 43.7275 83.363 -0.142568 0.739308 0.658102
2.90223 45.9305 80.6278 -0.135806 0.767083 0.627009
5.56388 52.7869 69.6449 -0.082654 0.920647 0.381546
30.6635 52.5252 50.4053 0.428611 0.903365 0.01498
33.7607 50.9763 50.7766 0.466342 0.884455 0.0162695
42.3416 45.1034 50.9886 0.641155 0.767086 0.0223647
48.5358 38.8366 50.8545 0.760846 0.648388 0.026572
50.3637 36.4524 51.3949 0.812757 0.581912 0.0283638
54.0942 30.4982 51.3867 0.879705 0.474526 0.0307324
40.555 46.4616 52.909 0.606787 0.793464 0.0471633
44.9798 42.5912 52.9219 0.701803 0.710276 0.054591
53.1083 31.9812 54.1615 0.856842 0.511256 0.0666267
37.9333 48.322 53.4389 0.570435 0.818447 0.0689074
42.8041 44.4412 54.7063 0.668533 0.739282 0.0807768
46.4682 40.8364 54.9506 0.72801 0.6799 0.0879614
51.0151 35.2107 54.6853 0.831068 0.547041 0.100359
54.3692 29.2373 56.0253 0.893198 0.436528 0.107893
24.9564 54.6519 52.2528 0.307197 0.950307 0.0504649
29.1443 53.0842 53.0057 0.385235 0.920646 0.0632866
32.3264 51.6065 53.4365 0.460452 0.884452 0.075684
48.2698 38.4387 56.8744 0.777574 0.615669 0.127789
-11.5634 51.9574 53.6488 -0.423192 0.903366 0.06956
-26.098 41.0548 56.032 -0.723614 0.679883 0.11892
-32.9701 31.5704 57.0598 -0.868575 0.474544 0.142778
-15.1002 50.1037 53.3551 -0.499907 0.863971 0.0603867
-19.2889 47.3176 54.1387 -0.570417 0.818458 0.0689307
-22.6126 44.7249 53.6442 -0.63692 0.767081 0.0769323
-28.9113 38.0861 54.3282 -0.782293 0.615694 0.0945442
-2.82683 55.3095 51.0812 -0.270178 0.962582 0.0209843
-24.6864 42.9432 52.1018 -0.701814 0.710272 0.0545099
-31.3316 34.9379 53.1998 -0.834595 0.547032 0.0648682
-33.338 31.7333 53.0985 -0.856844 0.511257 0.0665986
-8.11764 53.5839 51.0825 -0.350974 0.936305 0.0122219
-19.8788 47.08 50.5068 -0.60824 0.793468 0.021268
-26.6573 40.983 50.5875 -0.732867 0.679891 0.0255748
-29.2268 37.9752 50.775 -0.787542 0.615648 0.0274951
39.5904 46.7639 56.5467 0.595816 0.793455 0.12423
51.6834 33.4319 58.043 0.841339 0.511246 0.175431
54.0701 28.7709 59.1239 0.880548 0.436947 0.183611
34.8169 49.9007 56.6081 0.488093 0.863977 0.12373
41.8773 44.6542 58.1684 0.65276 0.739275 0.165458
50.3543 34.5264 60.6642 0.811458 0.547021 0.205681
-8.02051 53.4008 54.7577 -0.378429 0.920648 0.0959073
-16.6297 48.8014 56.5867 -0.523007 0.841961 0.13253
-33.506 29.4242 60.2443 -0.871911 0.436959 0.220994
-5.18161 54.5229 53.2223 -0.304771 0.950305 0.0635234
-22.0789 44.6359 57.446 -0.659234 0.739274 0.13742
-27.2444 39.2664 58.4626 -0.745289 0.648381 0.155389
-29.5113 36.4181 58.5464 -0.796163 0.581867 0.166
46.7977 39.1392 60.6384 0.72931 0.648409 0.218341
51.9346 31.4135 62.0916 0.843252 0.474541 0.252462
-13.7793 50.4332 56.9318 -0.482405 0.863968 0.144378
-18.5988 47.1639 58.3333 -0.583069 0.793454 0.174529
-23.6224 42.4545 60.6124 -0.67434 0.710292 0.201871
-25.8368 39.8927 61.6072 -0.72934 0.648378 0.218331
-28.4804 36.8649 61.3198 -0.779131 0.58186 0.233226
37.3202 47.8306 59.3 0.542913 0.818443 0.188141
40.1994 45.4098 60.6185 0.606167 0.767103 0.210033
42.8475 42.8124 61.7869 0.665133 0.710265 0.230484
48.1505 36.5079 63.2004 0.768472 0.581852 0.266269
50.2634 33.2495 63.808 0.812073 0.511246 0.281363
53.5244 26.9528 64.4256 0.866543 0.398655 0.300294
54.1159 24.2965 65.9939 0.881675 0.359589 0.305524
-30.0261 33.7295 63.5714 -0.790965 0.547047 0.274068
-31.5589 30.5574 64.771 -0.831734 0.474523 0.288176
-33.5194 26.9824 64.3983 -0.866547 0.398655 0.300283
-33.9799 24.4174 66.2414 -0.881675 0.359589 0.305525
21.7117 55.4114 54.4566 0.228572 0.969329 0.0903143
26.4185 53.8141 56.2211 0.326609 0.936313 0.129012
29.6586 52.3261 57.6903 0.398883 0.903367 0.157547
45.7787 38.8502 64.3671 0.70807 0.64838 0.279713
50.4343 31.1252 66.8636 0.81868 0.474522 0.323408
-10.0419 52.1118 57.946 -0.398892 0.903359 0.157566
-15.6931 48.6133 60.4465 -0.501786 0.84197 0.198233
-19.1775 45.7658 62.1148 -0.596669 0.767094 0.235698
-26.632 37.9304 64.2062 -0.732889 0.615657 0.289552
34.4747 49.3586 60.3656 0.492873 0.841971 0.219457
42.9959 41.2896 65.3816 0.669912 0.679894 0.298264
46.3942 36.9523 66.742 0.719879 0.615673 0.320501
51.6076 27.8096 68.3694 0.837833 0.398617 0.373015
52.7952 24.4756 69.0845 0.85244 0.359616 0.379504
54.433 18.7955 69.6733 0.888264 0.238866 0.39234
24.0886 39.649 85.2012 0.285207 0.648394 0.705863
25.7273 34.2595 88.903 0.313582 0.547058 0.776141
26.8662 29.2689 91.5209 0.336969 0.436942 0.833986
26.9646 26.0691 93.0567 0.343566 0.398609 0.850337
-4.44883 40.5836 84.167 -0.27472 0.679892 0.679908
-5.58285 36.9725 86.9311 -0.295183 0.61566 0.730637
-5.96905 30.2512 91.3422 -0.329755 0.474536 0.816136
-7.52753 25.1563 93.2139 -0.349552 0.359625 0.865149
-7.40514 22.2493 94.3818 -0.354936 0.319904 0.878454
-22.0765 42.6344 64.2043 -0.643056 0.710284 0.286313
-24.3202 40.0813 65.1336 -0.695497 0.648389 0.309637
-26.9016 36.0341 67.2159 -0.742956 0.581897 0.330775
-29.578 32.5173 66.8398 -0.785123 0.511265 0.349556
-30.7196 29.4091 68.4627 -0.821695 0.436991 0.365863
-32.6635 24.5862 69.2736 -0.852441 0.359584 0.379531
-33.9428 21.4002 69.0464 -0.877084 0.279689 0.39051
31.0309 51.1078 60.6078 0.417793 0.884461 0.207793
40.5448 43.4694 65.4354 0.60291 0.739301 0.299889
48.0322 33.3044 69.0607 0.769499 0.511257 0.382736
49.2859 30.535 70.0993 0.788139 0.474516 0.392009
52.9067 21.8622 70.9787 0.859642 0.279675 0.427548
23.5177 45.6004 78.8154 0.265492 0.76709 0.584027
24.2681 42.8328 81.8707 0.291285 0.710276 0.640828
26.2164 36.6354 86.9199 0.336538 0.581898 0.740362
29.3106 23.0139 93.3016 0.392057 0.319906 0.862527
29.4891 19.9541 94.2505 0.401806 0.238863 0.884023
-3.90459 43.0805 81.7611 -0.29128 0.710285 0.640821
-9.09436 29.9113 90.1976 -0.364265 0.474529 0.801332
-9.20225 19.5116 94.5001 -0.401801 0.2389 0.884015
-10.3655 15.4314 94.9326 -0.40873 0.156192 0.899191
-6.88222 53.3326 58.3015 -0.349569 0.92064 0.17385
-12.4464 50.3654 60.7752 -0.450868 0.863964 0.224243
-32.1642 22.2897 72.1595 -0.848309 0.319895 0.421948
-33.3968 18.959 71.7877 -0.869442 0.238889 0.432437
-34.4158 13.732 71.999 -0.889086 0.11818 0.442221
27.9219 39.2231 83.8277 0.344307 0.648369 0.679021
30.0017 32.7017 87.994 0.38868 0.511252 0.766518
30.8324 25.7227 91.475 0.422002 0.359599 0.832228
31.7055 17.9666 93.7499 0.439183 0.238866 0.866061
31.7433 13.6225 94.5994 0.449286 0.11441 0.886032
-3.88247 46.8684 76.8409 -0.275269 0.793447 0.542834
-7.01117 41.4383 82.0706 -0.331629 0.679901 0.654031
-8.68896 34.6571 87.2769 -0.378607 0.54703 0.746602
-11.4579 25.0422 91.4514 -0.422039 0.359592 0.832212
-11.083 21.6508 92.9636 -0.434236 0.279664 0.856287
21.7783 50.7521 71.2103 0.232227 0.880513 0.413241
25.9886 44.0566 79.5674 0.329886 0.739287 0.587052
31.5792 30.1124 88.7867 0.431224 0.474498 0.767396
34.1547 20.4697 91.7115 0.470347 0.279655 0.836999
34.6092 15.6928 92.7088 0.483869 0.156196 0.861088
34.9581 10.7484 93.2157 0.488609 0.0723401 0.869499
35.2425 6.42463 93.2132 0.489847 -0.0119542 0.871727
-3.63343 48.9126 73.6589 -0.264304 0.841972 0.470347
-8.92956 38.5149 83.9495 -0.386046 0.615683 0.686952
-11.2591 32.0834 87.7198 -0.421028 0.51127 0.749225
-12.7646 29.1227 88.6908 -0.440656 0.436975 0.784139
-13.6211 18.8803 92.4853 -0.475713 0.238876 0.846543
-13.3008 14.8578 93.595 -0.483875 0.156193 0.861086
-15.1341 11.1436 93.0833 -0.488621 0.0723459 0.869492
-14.5226 7.48186 93.6305 -0.489657 0.0302692 0.87139
24.9476 48.1875 74.1354 0.302579 0.818454 0.488445
26.3072 46.0535 76.6904 0.320498 0.793463 0.517394
28.6727 41.3399 81.2339 0.386198 0.679906 0.623361
30.9365 36.8091 84.3099 0.428288 0.581865 0.691377
33.9454 27.505 88.8621 0.482949 0.398604 0.779663
34.6911 24.0364 90.0619 0.491391 0.359585 0.793243
-7.91361 43.5327 79.1125 -0.354625 0.739301 0.572429
-11.3709 35.4465 85.187 -0.4283 0.581865 0.691369
-14.2557 25.7092 89.5728 -0.491419 0.359582 0.793226
-15.7813 15.6346 92.0172 -0.520197 0.156189 0.839643
33.3902 34.7558 84.4379 0.470796 0.547078 0.692139
34.7483 32.2336 85.42 0.483321 0.511235 0.710662
36.6411 18.6425 90.7351 0.546104 0.238923 0.802924
37.578 14.2911 91.1157 0.555503 0.156225 0.816707
37.6086 8.71668 91.7027 0.562131 0.030234 0.826496
37.4069 4.92743 91.8279 0.561584 -0.0541537 0.825646
37.0767 0.422661 91.5754 0.557056 -0.138106 0.818911
-2.90444 51.725 68.3232 -0.241748 0.902891 0.355451
-10.8676 41.2381 79.9221 -0.412426 0.679887 0.606349
-12.4611 38.491 81.7504 -0.443187 0.615669 0.651565
-15.8116 28.4051 87.1415 -0.505921 0.436954 0.743717
-17.4942 8.47359 91.7888 -0.562134 0.0302376 0.826493
-17.7886 4.29549 91.5262 -0.561584 -0.0541541 0.825646
-17.1803 1.13915 91.6252 -0.557023 -0.138113 0.818932
23.0988 51.671 68.3151 0.278642 0.884451 0.374306
25.2344 49.8349 70.8648 0.300705 0.863983 0.403869
30.2479 43.4392 77.6648 0.402128 0.73929 0.540133
33.3455 37.9665 81.6073 0.470579 0.615648 0.632086
37.042 29.4417 85.6233 0.537123 0.436959 0.721502
37.6761 26.3533 86.923 0.547653 0.398652 0.735631
38.5942 22.9816 87.8231 0.565817 0.319924 0.759935
39.285 19.3524 88.6489 0.579866 0.238894 0.7789
39.9807 16.3911 88.9547 0.585383 0.197711 0.78628
40.4023 9.4276 89.6838 0.596906 0.0302053 0.801742
40.5565 6.2005 89.6245 0.597158 -0.011947 0.802035
39.9051 1.94206 89.7979 0.594378 -0.0962106 0.79841
39.1607 -1.33598 89.8041 0.587427 -0.179729 0.789068
-6.81596 47.8724 73.4281 -0.343093 0.818456 0.460887
-14.2144 34.9516 83.7105 -0.499861 0.547072 0.671455
-16.0487 32.0671 84.5925 -0.513239 0.511248 0.689356
-17.7892 24.2426 87.8763 -0.557257 0.359586 0.74844
-18.3427 17.6487 89.8572 -0.585369 0.1977 0.786294
-18.8176 13.8707 90.3461 -0.589829 0.156212 0.792275
-20.4012 10.8778 89.5601 -0.595603 0.0723992 0.80001
-20.6014 7.3706 89.6078 -0.597151 -0.0119674 0.802039
-19.9022 2.82252 89.9054 -0.594386 -0.0961793 0.798408
-19.356 -1.47567 89.6262 -0.587428 -0.179717 0.78907
29.0316 47.0061 73.2295 0.383946 0.793452 0.472249
41.7879 -1.60448 87.6811 0.620556 -0.179758 0.763281
-9.42186 45.729 75.0158 -0.404693 0.767091 0.49779
-11.387 43.7373 76.3694 -0.424778 0.739283 0.522517
-16.9808 34.3799 82.028 -0.528055 0.547055 0.649529
-18.6158 29.6739 84.2247 -0.567409 0.436957 0.697937
-19.6039 26.3227 85.4155 -0.578522 0.398641 0.711617
-19.5607 21.2841 87.7667 -0.605636 0.279662 0.744979
-20.9003 16.651 88.1507 -0.61837 0.197711 0.760611
-22.1339 1.15066 87.9303 -0.62789 -0.0961965 0.772335
-21.5754 -3.76545 87.3023 -0.615225 -0.22109 0.756715
54.8067 1.08448 71.4471 0.886773 -0.138101 0.441092
53.427 -4.98473 71.735 0.8732 -0.221151 0.434298
22.9195 54.76 57.2565 0.27258 0.950302 0.150422
33.7773 48.877 63.4826 0.47238 0.841969 0.260662
36.5087 47.031 64.0051 0.532868 0.793478 0.294014
45.4491 36.2596 69.7075 0.712061 0.581865 0.39294
50.9775 25.5454 71.885 0.816984 0.359634 0.450778
51.732 20.8269 73.8562 0.84062 0.279667 0.463836
52.8059 15.665 74.3951 0.864815 0.156148 0.477192
53.3613 12.2989 74.3597 0.8698 0.114409 0.479956
53.3842 1.55513 74.2899 0.871527 -0.0961822 0.480821
53.588 -1.34083 73.0863 0.861302 -0.179728 0.475244
-15.9413 47.494 63.7365 -0.503092 0.818437 0.277597
-19.1114 44.5862 65.5446 -0.589584 0.739287 0.325341
-20.6849 42.5851 67.1177 -0.616285 0.710294 0.340111
-24.1183 38.6452 68.3491 -0.666566 0.648386 0.367812
-27.2846 33.2732 70.5269 -0.75249 0.511239 0.415204
-28.903 30.723 70.6264 -0.770728 0.47451 0.425227
-29.4617 28.0589 72.3948 -0.787562 0.436961 0.434525
-33.0637 15.9613 73.8195 -0.858273 0.197736 0.473569
-33.6129 4.49265 74.3514 -0.87428 -0.0541061 0.482398
-32.7565 -5.80861 72.5809 -0.844968 -0.262011 0.46624
-34.9401 2.1145 71.4176 -0.885558 -0.108933 0.451575
-33.7729 -1.81628 72.5314 -0.880782 -0.179779 0.438067
38.6141 43.7603 68.2068 0.575196 0.739287 0.350149
46.2181 33.045 72.6241 0.734075 0.511237 0.446957
48.8271 28.3272 73.2279 0.768304 0.436997 0.4677
52.1384 10.0796 76.7903 0.851928 0.072415 0.518628
52.2902 6.4389 76.7119 0.854098 -0.0119597 0.519975
51.8959 -4.23195 74.9084 0.833022 -0.221109 0.507135
41.9295 39.6042 70.4809 0.632794 0.648367 0.423311
43.35 36.9438 72.2204 0.675973 0.581885 0.452184
46.9318 30.4334 74.2659 0.731672 0.474504 0.489389
49.0403 25.5042 75.2206 0.7756 0.3596 0.518779
49.3477 22.5436 76.6886 0.787497 0.319882 0.526806
51.1341 17.6565 76.4145 0.814777 0.197724 0.545017
51.5076 14.0587 77.0208 0.820999 0.156178 0.549152
50.8206 2.4924 78.5733 0.827349 -0.0961818 0.553392
51.5815 -1.10571 76.6252 0.817658 -0.179755 0.546922
-31.069 -0.89531 77.4549 -0.823235 -0.138132 0.550639
-31.6487 3.46636 77.4859 -0.829998 -0.0541468 0.555132
-31.2057 8.48274 78.3214 -0.830831 0.0302191 0.555704
-31.038 11.5736 78.2512 -0.829038 0.0723872 0.554487
-30.0845 18.2352 77.7474 -0.807136 0.238913 0.539863
-27.6498 28.2434 75.1657 -0.747655 0.436966 0.500073
-26.7237 31.3258 73.7103 -0.731656 0.474532 0.489386
-24.7931 33.7329 74.0262 -0.695815 0.54703 0.465402
-17.9641 43.831 69.0464 -0.559725 0.739291 0.374375
-16.2371 46.0418 67.0186 -0.505918 0.793448 0.33836
-12.5452 48.9964 65.1278 -0.448458 0.841961 0.299978
-1.80398 54.9272 58.0286 -0.231702 0.960359 0.155001
-7.81827 52.3078 61.4197 -0.366339 0.903358 0.223024
-21.7178 40.5047 69.3126 -0.626369 0.679894 0.381321
-24.4817 36.2681 71.349 -0.694667 0.581884 0.422906
-30.2962 24.9252 73.6008 -0.797018 0.359588 0.48524
-30.9414 21.0442 75.0613 -0.820072 0.279649 0.499278
-32.3089 13.8287 75.804 -0.843673 0.156159 0.513644
-32.7324 -0.107529 75.0143 -0.845962 -0.13814 0.515039
-32.1381 -3.76084 74.7146 -0.833017 -0.221106 0.507144
26.7332 52.5287 62.1836 0.345998 0.903367 0.253404
29.3122 50.9278 64.0905 0.376452 0.884459 0.27571
33.2603 48.0897 66.4909 0.463536 0.818446 0.339529
38.8086 41.9065 71.3038 0.567858 0.710275 0.415989
46.9208 27.4588 76.8444 0.73985 0.398641 0.541948
49.1097 18.1162 79.1521 0.783368 0.23886 0.57383
49.9821 9.79615 79.9453 0.804614 0.0723834 0.58937
50.4304 6.78081 79.4556 0.806704 -0.0119327 0.590835
49.7363 -1.50558 79.1722 0.793593 -0.17975 0.581292
49.564 -4.52745 78.3611 0.786738 -0.221118 0.576325
48.7036 -7.43856 78.2155 0.768917 -0.30252 0.563248
47.2385 -11.7536 77.6338 0.748469 -0.379806 0.543637
35.9162 44.5608 70.4907 0.525776 0.739292 0.420722
43.4309 33.2966 76.3389 0.671019 0.511221 0.537016
46.9402 24.7006 78.7207 0.728576 0.359582 0.58299
47.8864 21.2376 79.4073 0.749636 0.279673 0.599857
48.1957 15.767 81.1079 0.771187 0.156186 0.617152
-18.7958 41.3526 72.204 -0.572556 0.679892 0.458177
-20.972 36.67 75.7559 -0.635029 0.58185 0.508123
-25.9252 27.1548 78.3803 -0.716075 0.398651 0.572987
-26.8158 22.9058 79.8988 -0.739783 0.319899 0.591934
-28.0003 20.0507 79.8171 -0.749622 0.279662 0.59988
-28.2969 12.1821 81.7785 -0.775667 0.114382 0.620691
-28.8598 7.02001 81.5074 -0.780727 -0.0119065 0.624758
-29.2762 0.456829 80.2947 -0.773332 -0.138098 0.618779
-27.5923 -3.58517 81.2749 -0.761465 -0.221083 0.609338
-4.48708 53.631 60.7841 -0.28331 0.936307 0.207518
-21.9065 38.1871 72.6181 -0.635729 0.615652 0.465641
-25.2275 30.7861 76.3683 -0.710108 0.474531 0.520161
-28.1266 24.6608 77.1462 -0.752761 0.359604 0.551394
-29.4524 14.9074 79.7234 -0.796838 0.156185 0.583657
-29.6747 3.71953 80.3076 -0.805535 -0.0541053 0.590073
-29.3953 -5.80767 78.0441 -0.778524 -0.262029 0.5703
-27.5943 -9.65167 78.4985 -0.757938 -0.342483 0.55519
32.9891 46.8428 69.6393 0.458561 0.79345 0.400199
36.3471 42.6187 73.2161 0.530348 0.710281 0.462852
38.2163 40.0351 74.802 0.573606 0.648416 0.500532
41.3177 35.5558 76.5833 0.612775 0.581879 0.534718
43.5268 30.0134 79.1435 0.663173 0.474533 0.578808
44.7961 27.066 79.8194 0.690977 0.398649 0.603017
46.1433 19.5915 82.2238 0.731606 0.238875 0.638507
48.0516 12.495 82.021 0.748489 0.114409 0.653204
47.4988 8.90146 83.0614 0.753098 0.0302471 0.657212
48.0553 5.39188 82.4527 0.753381 -0.0119932 0.657475
47.9326 2.0393 82.2422 0.749961 -0.0962007 0.654449
47.5439 -1.45985 81.9704 0.741174 -0.179769 0.646795
47.0086 -5.34 81.3332 0.727071 -0.262059 0.634581
45.0066 -10.6829 81.061 0.707853 -0.34248 0.617779
27.5741 50.5715 67.1617 0.364922 0.86397 0.346968
42.2291 28.7575 81.4778 0.651857 0.436985 0.61978
43.5748 24.7529 82.5658 0.676246 0.359602 0.642944
46.3157 14.8252 83.5158 0.715796 0.156186 0.680619
45.8942 4.17227 84.7371 0.723629 -0.0540828 0.688067
45.1886 -4.03367 83.8061 0.70677 -0.221111 0.672002
44.8026 -7.68378 82.8045 0.690702 -0.302542 0.65681
-5.79109 52.0434 64.924 -0.310769 0.903366 0.295554
-7.93611 50.3711 67.2788 -0.364918 0.863974 0.346963
-10.4521 48.6235 68.7504 -0.391005 0.841968 0.37176
-14.5918 43.1998 74.2495 -0.510154 0.710262 0.485048
-19.3948 35.7566 78.4888 -0.589408 0.581863 0.560387
-24.0095 26.0724 81.3619 -0.664638 0.398634 0.631939
-25.5354 4.58446 85.1459 -0.723629 -0.0540961 0.688066
-23.6311 -13.3808 80.9365 -0.663123 -0.427982 0.614085
-12.9157 46.7235 69.959 -0.458587 0.793451 0.400167
-18.776 39.0316 75.4596 -0.573585 0.648409 0.500565
-23.1132 30.6897 79.0619 -0.663213 0.474515 0.578778
-25.7246 20.1533 82.4797 -0.72335 0.279663 0.63131
-26.7427 15.2032 82.9517 -0.744205 0.156176 0.649436
-26.9968 9.44074 83.6109 -0.753106 0.0302636 0.657203
-27.3405 0.47662 82.6467 -0.746223 -0.138116 0.651211
-25.4211 -9.29416 81.3549 -0.707878 -0.342489 0.617746
21.718 54.1252 61.9681 0.239907 0.936246 0.256685
24.644 52.3847 65.0677 0.297939 0.903359 0.308503
29.8953 48.1534 70.3072 0.399142 0.818451 0.413308
33.3514 43.6525 74.7733 0.467752 0.739296 0.484407
36.6936 39.0397 77.6315 0.528848 0.64838 0.547653
39.7447 34.149 79.6889 0.581483 0.547049 0.602176
43.8909 20.9191 84.0755 0.666942 0.279643 0.690644
44.375 11.3026 86.1042 0.692831 0.0724077 0.717456
45.4071 7.49503 85.3697 0.694349 0.0302237 0.719003
44.5443 -0.948543 85.3235 0.687975 -0.138138 0.712467
42.5294 -7.7346 85.0532 0.662097 -0.302543 0.685635
41.9877 -11.5612 83.6983 0.64202 -0.381792 0.664864
41.5298 -15.0223 82.0111 0.610119 -0.478137 0.631776
34.346 41.2089 77.1939 0.486441 0.679896 0.548741
36.3624 36.9172 80.2283 0.539493 0.58188 0.608575
37.3517 33.9259 82.1029 0.555273 0.547054 0.626421
39.6678 30.7273 82.5594 0.583888 0.474536 0.658703
40.3141 26.4467 84.7323 0.608391 0.398671 0.686238
41.329 20.7177 86.5266 0.636894 0.279645 0.718446
43.0066 16.9454 86.2671 0.650267 0.197698 0.733531
42.3359 13.892 87.5705 0.6552 0.156204 0.73913
42.7713 9.23263 87.7509 0.663004 0.0302218 0.748005
43.4477 5.81902 87.1969 0.663294 -0.0119987 0.748263
40.4359 -9.8263 85.9825 0.592653 -0.342498 0.729011
38.6222 -15.508 84.3155 0.559575 -0.461564 0.688357
-18.2078 -13.337 85.987 -0.572367 -0.420458 0.703997
-20.0658 -10.1277 86.1411 -0.59266 -0.342498 0.729006
-2.17774 53.5371 63.6962 -0.237051 0.933968 0.267416
-9.87279 47.5268 71.5682 -0.38119 0.818439 0.429944
-14.3716 40.7397 77.7517 -0.486446 0.6799 0.548732
-22.4466 19.0076 86.1425 -0.644133 0.238915 0.726645
-23.0408 10.1522 87.441 -0.661575 0.0724 0.746375
-20.8095 -12.8243 84.0814 -0.61309 -0.38177 0.691644
-12.1461 45.5118 72.9846 -0.44565 0.767085 0.461494
-17.0031 38.3089 78.1673 -0.547383 0.615669 0.566854
-20.1611 31.9235 81.1818 -0.597017 0.511249 0.61822
-21.1474 29.0069 82.3774 -0.624858 0.436962 0.647006
-22.0747 25.267 83.7727 -0.648192 0.359606 0.671216
-23.2472 22.1732 84.1771 -0.658165 0.319896 0.681532
-24.6314 17.0892 84.6779 -0.680955 0.197697 0.705136
-24.9885 12.8402 85.2866 -0.690087 0.114415 0.714625
-24.9091 7.75381 85.8388 -0.69435 0.0302116 0.719003
-24.3354 1.03722 85.9092 -0.68801 -0.138115 0.712437
-24.3142 -4.08991 84.6817 -0.677485 -0.221111 0.701516
-24.029 -7.16792 83.854 -0.662116 -0.302488 0.685641
37.6332 -8.64026 88.6924 0.566842 -0.31464 0.761375
38.0269 -12.4645 86.5999 0.551977 -0.381735 0.74135
36.063 -15.2202 86.4916 0.530708 -0.458341 0.712932
35.2209 -12.0093 88.8209 0.519774 -0.381804 0.764239
-14.3382 -14.2219 88.2259 -0.477805 -0.420446 0.771315
-16.3224 -10.8107 88.6522 -0.52839 -0.342458 0.776869
32.756 -15.1048 88.715 0.435416 -0.458337 0.774816
31.7332 -4.82131 93.5076 0.440787 -0.223933 0.86923
31.2893 -10.36 91.8271 0.42492 -0.342482 0.837943
30.3056 -13.9677 90.6451 0.410362 -0.420446 0.809215
29.8968 -16.7734 89.2893 0.401925 -0.45838 0.792681
29.7457 -7.29485 93.7128 0.394406 -0.302521 0.867713
27.9784 0.640697 96.2778 0.371012 -0.138098 0.918302
28.8135 -3.17262 95.2561 0.365356 -0.221083 0.904233
27.6085 -9.93679 93.6741 0.351998 -0.342453 0.871105
26.0716 6.50704 97.3993 0.334662 -0.0119703 0.942262
27.6601 3.7303 96.7273 0.334195 -0.0541343 0.940948
26.7731 -5.76759 95.3947 0.323065 -0.262001 0.909387
24.8274 -12.6766 93.5666 0.309377 -0.381794 0.87093
24.3447 -17.4347 91.2489 0.290761 -0.495425 0.818543
-5.97626 6.43114 97.4319 -0.334675 -0.0119698 0.942258
-5.18434 -10.9936 94.1711 -0.314443 -0.342468 0.885348
-4.86629 -14.2251 92.8117 -0.303712 -0.420425 0.854986
-8.02408 0.671637 96.2636 -0.370999 -0.138097 0.918308
-8.55298 -2.71933 95.4573 -0.368528 -0.179774 0.912068
-7.618 -5.96743 95.0127 -0.361498 -0.262002 0.894804
-5.73426 -17.191 90.892 -0.325388 -0.495425 0.805405
-11.2083 -0.140335 94.7838 -0.408857 -0.154122 0.89949
-10.5542 -6.71053 93.5279 -0.399336 -0.262031 0.878562
-9.58331 -9.59146 92.9616 -0.388764 -0.342452 0.85533
-8.33318 -15.4517 90.7928 -0.367783 -0.458356 0.809101
-10.4739 -12.6775 91.2079 -0.418009 -0.381773 0.824329
-12.6414 -8.89843 91.7092 -0.466949 -0.302495 0.830936
-11.3532 -15.8377 89.0693 -0.435413 -0.458348 0.774811
-10.2891 -18.6622 87.883 -0.425528 -0.495427 0.757284
23.6978 10.8043 97.9978 0.293455 0.0724089 0.953227
24.4091 3.50438 97.8086 0.293783 -0.0541363 0.954338
25.0152 0.327069 97.276 0.291375 -0.138113 0.946586
23.8994 -3.78466 96.8562 0.286903 -0.221141 0.932086
23.9066 -9.45841 95.1745 0.276418 -0.342466 0.897948
22.7617 17.9343 97.1552 0.245941 0.237431 0.939755
23.1303 14.7347 97.6761 0.25007 0.156146 0.955554
22.8432 7.91677 98.3682 0.253064 0.0302558 0.966976
22.1164 -1.01088 97.906 0.24908 -0.17974 0.951658
22.0043 -6.95496 96.5472 0.24435 -0.262038 0.933611
21.3771 -12.9811 94.4608 0.233983 -0.381779 0.894146
22.0637 -15.6256 92.9837 0.225048 -0.458335 0.859815
21.3515 -19.7919 90.7176 0.214441 -0.531615 0.81939
20.2623 30.659 92.9059 0.0254309 0.463808 0.885571
19.3768 24.0549 96.1219 0.197551 0.359567 0.911968
19.4914 14.9082 98.5105 0.209056 0.15619 0.96535
20.7676 11.3432 98.69 0.211112 0.0723434 0.974781
20.3007 4.06018 98.8911 0.211389 -0.054113 0.975903
19.6854 -9.95035 96.0829 0.198899 -0.342504 0.918221
18.9708 -15.16 93.976 0.188147 -0.458361 0.868623
18.2538 -18.3872 92.3426 0.183925 -0.495431 0.848952
17.921 -20.9766 90.7394 0.180222 -0.565299 0.804958
19.1942 -2.9928 98.1905 0.167066 -0.179808 0.969411
19.2862 0.607361 98.7738 0.168229 -0.138091 0.976028
19.0785 8.45031 99.2021 0.16972 0.030262 0.985027
19.213 18.7204 97.7873 0.164929 0.238906 0.956934
17.2669 21.2748 97.4251 0.16307 0.279669 0.946147
17.5683 29.7536 93.9374 0.152751 0.436967 0.886413
17.7091 33.0921 92.0078 0.145895 0.511227 0.846972
15.8124 45.6829 81.1991 0.108958 0.767083 0.632228
13.8953 49.9808 75.3025 0.0855506 0.863982 0.496202
14.9678 -17.3315 93.4548 0.110881 -0.495443 0.861535
15.1701 -13.332 95.4478 0.11582 -0.420444 0.899896
17.0063 -7.07835 97.5326 0.123191 -0.262074 0.957153
15.5108 -3.66801 98.5948 0.124489 -0.221101 0.967273
16.3274 -0.371874 99.1003 0.126423 -0.13809 0.982318
17.259 2.84535 99.3592 0.127007 -0.0962071 0.987225
16.6008 6.43878 99.6107 0.127611 -0.0119734 0.991752
16.1558 10.1139 99.5759 0.127349 0.0723796 0.989213
16.165 14.4417 99.11 0.12605 0.156197 0.97965
16.3839 17.7562 98.4697 0.125127 0.197731 0.972238
16.3193 26.9765 95.4519 0.117133 0.398679 0.909579
14.8369 32.6984 92.6731 0.109669 0.511227 0.85242
14.7284 38.0383 88.9668 0.100584 0.615671 0.781558
12.8334 -20.587 91.6717 0.0604402 -0.573543 0.816943
14.7533 -9.74696 96.93 0.0800353 -0.342474 0.936112
13.3168 3.30433 99.8225 0.0851142 -0.0541218 0.9949
13.4937 16.086 99.1062 0.0835382 0.197695 0.976698
15.0069 23.7763 96.9038 0.0807242 0.319869 0.944017
12.9574 34.9038 91.4445 0.071328 0.547041 0.834061
13.4845 41.0414 86.5085 0.0624562 0.679873 0.730665
12.9686 43.9502 83.6042 0.0574379 0.739293 0.67093
12.049 46.0212 81.2685 0.0546771 0.767084 0.639213
12.0243 51.7868 72.1991 0.0365318 0.90336 0.427324
11.2741 54.5884 65.3259 0.0265279 0.950308 0.310178
11.3929 -16.539 94.1495 0.0378842 -0.458362 0.887958
12.0673 -8.23005 97.6302 0.0406462 -0.302531 0.952272
12.4249 -4.4358 98.668 0.0416519 -0.221082 0.974365
12.2223 -0.357621 99.4589 0.0422824 -0.138095 0.989516
13.1595 7.45006 99.9707 0.042663 -0.0119607 0.999018
11.5088 10.7722 99.8899 0.0425639 0.0724172 0.996466
12.5583 20.3003 98.1897 0.0410139 0.279701 0.959211
12.2303 26.7177 95.9464 0.0391418 0.39862 0.916281
12.2009 30.4032 94.1838 0.0375164 0.474531 0.879439
11.3512 48.4421 78.0051 0.0245244 0.818454 0.574048
10.8532 50.1308 75.3267 0.021468 0.863971 0.503084
10.5086 52.9268 69.8071 0.0166614 0.920645 0.390045
10.5189 55.5697 61.8938 0.00980384 0.973163 0.229907
10.6631 -13.1668 95.813 0 -0.420414 0.907332
9.3137 -10.0118 97.068 0 -0.342452 0.939535
9.56066 -3.41951 98.9576 0 -0.221081 0.975255
9.96714 2.24699 99.8247 0 -0.0962471 0.995358
10.3371 5.99607 100.043 0 -0.0119915 0.999928
10.5641 14.0331 99.5604 -0 0.156196 0.987726
10.4005 23.0135 97.4176 -0 0.319875 0.94746
9.65554 32.3713 93.1366 -0 0.511233 0.859442
9.93823 36.5555 90.3847 -0 0.581893 0.813265
9.77586 40.5378 87.1398 -0 0.679886 0.733318
9.06763 -18.8284 92.8712 -0.0361019 -0.531655 0.846191
7.64598 0.0078047 99.5043 -0.0422821 -0.138159 0.989507
7.37912 7.44166 99.9936 -0.0426624 -0.0119905 0.999018
7.08396 11.0137 99.8123 -0.0425639 0.0723564 0.99647
7.1634 14.5842 99.397 -0.0421544 0.156197 0.986826
8.56962 17.7707 98.8691 -0.0417763 0.197754 0.979361
8.5922 28.4695 95.1902 -0.0383368 0.436981 0.898653
8.26848 42.5711 85.1468 -0.0300449 0.710266 0.703292
8.85139 44.7746 82.8009 -0.0273322 0.767103 0.640942
8.22803 47.08 79.9012 -0.0259624 0.793454 0.608077
6.09894 -14.96 94.8124 -0.0772831 -0.420428 0.904028
6.2337 -8.84221 97.3317 -0.081201 -0.302481 0.94969
6.80883 -5.49739 98.3716 -0.0822017 -0.262022 0.961555
4.98548 -2.37205 98.9167 -0.0838383 -0.179777 0.980128
6.49407 3.34395 99.8084 -0.0851143 -0.0541301 0.9949
4.99399 17.5632 98.6777 -0.083538 0.197694 0.976698
6.8738 25.783 96.2988 -0.079521 0.359614 0.929707
6.40082 34.0584 91.9439 -0.0713281 0.547041 0.834062
7.07878 37.4816 89.5818 -0.0671696 0.615664 0.785141
8.14841 52.0956 71.561 -0.0365301 0.903364 0.427316
7.13255 50.065 75.2933 -0.0643099 0.863969 0.499422
5.92396 41.0008 86.4881 -0.0936366 0.679873 0.727327
3.70402 31.3599 93.2715 -0.112312 0.474531 0.873044
4.74577 22.8717 97.1801 -0.120955 0.319869 0.939709
3.51603 12.8912 99.278 -0.126779 0.114406 0.985311
3.62703 9.22833 99.5981 -0.127625 0.0302122 0.991362
2.82115 5.18954 99.5144 -0.127448 -0.0541311 0.990367
3.21394 -7.92515 97.2918 -0.121703 -0.302512 0.945344
4.77473 -11.2802 96.3088 -0.117982 -0.381816 0.916677
5.3342 -18.5229 92.8084 -0.110888 -0.495443 0.861534
2.35282 -18.6557 92.2931 -0.14753 -0.495429 0.856029
2.38339 -15.6516 93.9705 -0.150914 -0.458344 0.875868
0.925434 -4.82721 97.7904 -0.16562 -0.221061 0.961094
1.06326 0.822826 98.8644 -0.168231 -0.13809 0.976027
0.503402 11.3738 98.9625 -0.169355 0.0723938 0.982893
1.5694 15.482 98.6044 -0.167781 0.156189 0.973373
1.43764 18.571 97.9365 -0.16491 0.238908 0.956937
1.79033 23.9668 96.374 -0.160911 0.319904 0.933686
3.46265 36.1802 90.1247 -0.138132 0.581896 0.801446
5.69669 48.3679 77.8152 -0.0975605 0.818455 0.566228
7.87046 54.9341 64.1159 -0.0460587 0.962581 0.26705
0.357526 29.6072 93.6017 -0.190463 0.436964 0.879082
-0.0733394 5.23903 99.0055 -0.211391 -0.054112 0.975902
0.384587 -9.43059 96.2917 -0.198934 -0.342503 0.918214
-1.91969 18.6252 97.2006 -0.244435 0.238897 0.939777
-2.33805 15.0646 97.8293 -0.250057 0.156227 0.955544
-1.87643 9.29729 98.5778 -0.253057 0.0302554 0.966978
-1.63428 -2.65142 97.7221 -0.24908 -0.179748 0.951656
-1.39876 -6.63692 96.7947 -0.24437 -0.262037 0.933606
-2.66641 -9.37976 95.5738 -0.23789 -0.342467 0.908914
-1.09678 -12.3954 94.784 -0.233985 -0.381781 0.894144
-1.04304 -15.8769 93.1166 -0.225045 -0.45836 0.859803
-5.43094 9.69289 97.5483 -0.293454 0.0724275 0.953225
-4.58824 3.70361 97.7644 -0.293783 -0.0540992 0.95434
-4.13681 -0.140443 97.4779 -0.291377 -0.138091 0.946589
-4.55742 -3.5925 96.6989 -0.286968 -0.221139 0.932066
-2.47243 -18.5351 91.1979 -0.255561 -0.495448 0.830193
-17.7958 -8.05643 87.3255 -0.8183 -0.000159923 0.574792
-8.05259 10.5646 95.6365 -0.676042 0.21681 0.704245
-5.17257 19.12 95.0752 -0.641043 0.318842 0.698143
-0.578921 35.9395 88.3748 -0.612683 0.531963 0.584496
0.46245 43.8334 80.9896 -0.619241 0.62689 0.47281
0.388919 48.0342 74.4266 -0.628765 0.683955 0.369945
1.07888 51.5082 68.3374 -0.635494 0.721755 0.274257
0.63917 52.2414 65.1718 -0.637452 0.734116 0.233943
18.2923 55.357 53.985 0.647959 0.759716 0.0545946
18.7408 53.7133 61.8489 0.643348 0.743286 0.183383
19.1648 52.4628 65.0206 0.64049 0.734262 0.225014
19.484 50.9727 68.4332 0.636379 0.716444 0.285884
19.3309 47.3297 76.1061 0.627114 0.669034 0.398901
18.0824 43.8944 82.779 0.618089 0.612284 0.493026
18.4762 41.6564 84.9483 0.61514 0.590031 0.52294
21.1288 35.1025 88.5493 0.613974 0.521918 0.592147
23.1411 25.3207 93.6922 0.623469 0.395651 0.674349
25.8292 13.5903 96.7314 0.661271 0.25485 0.70553
28.0407 11.1451 95.4694 0.675591 0.219523 0.703837
28.9946 6.95076 95.7225 0.695692 0.173593 0.697049
31.6129 0.97072 94.2279 0.73151 0.110933 0.672746
34.5678 -2.64962 91.305 0.77199 0.0522794 0.633482
19.3607 54.2119 57.8533 -0.9997 -0.0245114 0.000443471
19.3438 55.0066 50.2504 -0.999844 -0.0176626 -0.000149859
19.5844 49.2586 73.1287 -0.997934 -0.0641997 -0.00260492
24.7549 20.9923 94.8177 -0.956103 -0.292997 0.00437666
54.0004 42.9185 -5.31775 1 0 0
50.5036 61.4177 -7.6953 0.851559 0.499897 -0.15796
53.9556 48.093 -7.80937 0.999234 0.0358802 -0.0156319
51.8378 59.8926 -4.84042 0.916641 0.378808 -0.127572
53.7282 51.5008 -6.91544 0.991912 0.103497 -0.0734831
53.1915 57.1812 -4.36479 0.76638 0.221392 -0.603031
54.0499 53.9724 -4.21539 0.793028 0.131019 -0.594929
54.5537 49.9325 -4.08969 0.813324 0.0416879 -0.580315
54.0419 46.6998 -4.85764 0.819109 0 -0.573638
49.1368 66.4798 12.3877 0.806602 0.59108 0.00411015
53.1669 58.2301 12.6034 0.958312 0.282771 -0.0409657
45.0192 70.7154 12.8174 0.627611 0.778454 0.0107196
50.667 43.7197 -26.1745 0.845665 0.345891 -0.40646
46.183 53.1135 -25.4823 0.661176 0.484799 -0.572552
54.0004 41.2934 12.4925 1 0 -0
54.0004 51.6736 14.105 1 0 -0
46.899 7.02754 -57.7681 0.35587 -0.105594 -0.928551
41.5348 18.347 -60.7123 0.492089 0.379399 -0.783521
51.9481 61.7047 14.6406 0.918441 0.395552 0.00187377
46.6506 69.2832 15.0613 0.681011 0.732273 -0.000217979
51.9242 41.1073 -27.7721 -0 0.382834 0.923817
49.4338 48.4045 -24.93 0.510277 0.262323 -0.819026
51.723 46.2607 -24.0578 0.54906 0.226364 -0.804545
44.0476 55.2844 -26.736 0.841995 0.00470028 -0.539464
48.5106 64.7512 -7.91693 0 0 1
54.8122 44.9009 -7.91693 0 0 1
44.6986 69.8826 -5.62452 0.917175 -0.00194292 -0.398481
47.2559 68.3818 -3.91693 0 0 -1
54.1824 48.9344 12.0831 0 0 1
51.5295 64.2523 12.0831 0 0 1
54.0257 45.4007 15.4006 0.57359 0 -0.819143
55.0004 35.5261 -16.405 1 0 0
55.0004 39.0248 -12.7239 1 0 0
55.0004 41.656 -10.4991 1 0 0
55.0004 35.7265 -12.6551 1 0 0
55.0004 36.1753 -7.8777 1 0 0
55.0004 36.713 -3.14506 1 0 0
55.0004 39.5601 -5.69895 1 0 0
55.0004 36.9285 1.32236 1 0 0
55.0004 40.3588 -2.6857 1 0 0
55.0004 39.9777 0.345418 1 0 0
55.0004 39.3585 10.2213 1 0 0
55.0004 39.5371 6.86576 1 0 0
55.0004 39.121 3.69271 1 0 0
55.0004 51.1947 6.38704 1 0 -0
55.0004 49.2157 8.99727 1 0 0
55.0004 49.4743 2.60663 1 0 -0
55.0004 47.6566 5.29935 1 0 -0
55.0004 44.0336 -2.60851 1 0 0
55.0004 46.725 1.27703 1 0 0
55.0004 42.4836 4.68131 1 0 0
55.0004 44.2345 8.10189 1 0 0
55.0004 48.131 -1.72118 1 0 0
