ply
format ascii 1.0
comment Created by Open3D
element vertex 898
property double x
property double y
property double z
property double nx
property double ny
property double nz
end_header
59.2654 31.6307 20.1852 0.870328 -0.00230228 0.492467
60.5616 29.7106 17.0718 0.958401 -0.00218987 0.285416
56.3763 25.0812 3.04921 0.669509 -0.00227331 -0.742801
56.926 31.2037 3.54146 0.702007 0.000658719 -0.71217
58.9446 28.1852 6.02497 0.850031 0.00114151 -0.526732
60.2126 33.5681 8.57898 0.926206 -0.00164181 -0.377015
60.3337 30.1367 8.93176 0.962748 0.00100609 -0.270398
60.8736 27.2931 11.1267 0.987032 -0.00132206 -0.160518
61.032 30.708 12.5106 0.99686 -0.00249039 -0.079148
61.0261 27.6615 14.3564 0.99795 -0.00186418 0.063963
61.0261 33.5297 14.425 0.996865 -0.000748925 0.0791212
59.3658 22.0091 13.944 0.023169 -0.999732 0.000178159
55.3322 22.3264 24.208 0.448333 -0.660924 0.601811
58.3241 24.9032 21.597 0.809538 0.00558895 0.587041
61.0075 24.6102 14.6611 0.997824 0.0149938 0.0642146
59.5448 22.0525 17.0668 0.143254 -0.988975 0.0375115
57.4067 22.0296 20.7915 0.0507136 -0.997899 0.0403186
60.3378 24.817 8.93382 0.947746 -0.0144167 -0.3187
55.2887 22.0009 5.51751 0.000388456 -1 -0.000357335
53.4635 24.5814 1.07745 0.473591 -0.00255595 -0.880741
58.456 23.1436 5.36399 0.791298 -0.0348402 -0.610438
60.8017 22.7709 11.1663 0.957054 -0.24591 -0.153545
51.0491 22.0037 24.5727 0.00186854 -0.999983 0.00548726
57.8333 22.0024 8.48023 0.00532036 -0.999983 -0.00229989
49.7745 4.09003 19.9117 0.817492 -0.0630745 -0.572476
48.4328 21.8582 21.0598 -0.0235785 -0.150018 0.988402
51.8346 20.4022 20.2086 0.377167 -0.0564309 0.924424
55.9997 21.3438 12.7882 0.974348 0.203777 -0.0955044
51.2863 21.01 6.47574 0.341744 0.190984 -0.920183
49.142 -5.56044 5.99096 0.00968029 -0.248511 -0.968581
46.9499 -8.41261 6.95057 -0.0951095 -0.316415 -0.943841
40.1772 -20.4646 20.3376 0.263544 -0.964144 -0.0311552
36.5001 -18.6479 15.8006 -0.223236 -0.732679 -0.642921
52.8817 -0.830028 19.4535 0.374693 0.0585769 0.925297
54.7173 -3.71865 18.1065 0.73032 -0.0846802 0.677837
50.4909 -3.14815 20.4923 0.189632 0.213578 0.958345
44.5503 -18.3035 15.6281 0.29901 -0.898165 -0.322324
46.9338 -17.4058 18.589 0.558398 -0.823013 0.104119
43.0932 -19.4464 18.8142 0.335196 -0.939868 -0.065508
40.8799 -19.2863 16.1436 0.101093 -0.91538 -0.389693
39.7132 -15.4035 11.9529 -0.292789 -0.513254 -0.80675
42.6005 -13.7195 10.0748 -0.222479 -0.469952 -0.854194
49.1954 -15.8283 15.9463 0.613702 -0.78813 -0.0471328
43.7781 -16.8402 12.6292 0.0874998 -0.790224 -0.60654
44.5058 -17.5784 22.9621 0.584742 -0.671371 0.455344
45.847 -15.0164 10.9035 0.17886 -0.719551 -0.671011
47.8632 -15.0926 21.5749 0.684276 -0.49354 0.536828
48.488 -12.915 9.68733 0.265059 -0.631778 -0.728423
49.3743 -14.5929 12.3654 0.475371 -0.758432 -0.445873
51.3295 -12.3689 11.1899 0.612212 -0.651029 -0.448729
48.7713 -8.29878 22.3109 0.446733 0.176527 0.877079
55.1491 -6.90882 16.2668 0.886873 -0.301467 0.350106
53.5539 -9.82386 17.3519 0.841856 -0.383908 0.379333
53.1633 -9.9491 10.565 0.714111 -0.554415 -0.427398
54.3168 -9.75787 13.9005 0.859645 -0.510504 -0.0198817
49.3736 -11.3518 21.9311 0.664433 -0.18556 0.723945
51.6012 -12.6353 18.2878 0.789992 -0.493063 0.364418
55.4114 -7.24066 12.0797 0.899879 -0.414854 -0.134587
56.5375 -3.30723 15.0486 0.94466 -0.202667 0.257961
52.5791 -6.10639 19.8401 0.623512 -0.0414729 0.780713
56.9511 -2.08554 11.0881 0.959907 -0.216687 -0.177835
51.3552 -8.00561 7.49459 0.38644 -0.434965 -0.813308
57.4307 0.465052 13.859 0.977825 -0.111974 0.176973
45.2647 -12.0699 8.68938 -0.115614 -0.458987 -0.880889
49.5613 18.1371 5.606 0.0450586 0.134235 -0.989925
53.0352 18.2929 6.73682 0.551698 0.198068 -0.810184
55.7162 19.1966 10.0188 0.87185 0.208188 -0.443323
53.9693 15.2223 6.69808 0.555658 0.165116 -0.81485
56.4295 15.3368 9.75523 0.912862 0.171178 -0.370651
54.6897 18.6196 18.1277 0.739447 0.0503141 0.671332
52.3447 15.8724 19.7516 0.376204 -0.0463419 0.925377
57.1073 15.1113 13.358 0.988365 0.141758 0.055122
54.1192 12.2004 6.27488 0.56182 0.125913 -0.817621
56.1678 16.7015 16.1683 0.896836 0.100946 0.430692
53.1503 7.03518 5.29266 0.409766 0.0142834 -0.912079
49.5628 13.6496 19.9671 -0.0430402 -0.110614 0.992931
57.3552 11.7113 10.8789 0.973286 0.123755 -0.193388
52.3514 12.0267 19.5483 0.304237 -0.0443773 0.951562
57.1296 11.5619 15.0439 0.929357 0.0664874 0.363147
56.1842 7.20584 7.59835 0.76165 0.046899 -0.64629
53.9727 -1.47843 6.47799 0.549242 -0.197093 -0.812088
54.8163 3.03528 6.33889 0.640762 -0.0690533 -0.764628
57.7791 3.00582 11.9087 0.996282 -0.0578196 -0.0638666
50.1423 7.7414 19.5397 -0.123373 -0.0381104 0.991628
54.9792 6.02555 18.1673 0.572996 -1.60303e-05 0.819558
57.5238 5.44602 14.5857 0.953304 -0.00704761 0.301931
56.6791 0.580332 8.93082 0.884292 -0.120015 -0.451248
54.2655 9.58749 18.6462 0.508991 -0.00675878 0.860745
57.7983 7.06654 11.3858 0.991814 0.0446179 -0.119642
57.2647 4.82126 9.39257 0.926015 -0.0273394 -0.376495
52.7399 -4.21593 6.54619 0.439288 -0.291436 -0.84976
54.8079 14.0298 18.2391 0.633173 0.0134892 0.773893
56.1067 2.6067 17.0657 0.789261 -0.0238981 0.613592
55.4865 -3.97336 8.93759 0.814377 -0.298277 -0.497816
54.6587 22.0007 18.9689 0 -1 0
56.3047 22.0007 15.9 0 -1 0
51.9787 9.85874 4.90097 0.822153 0.106919 0.559135
50.9585 13.7409 5.18996 0.807615 0.238915 0.539145
46.7826 21.0509 6.09303 0.709009 0.515464 0.481252
48.5656 24.6092 -0.972633 0.639352 0.667108 0.382355
50.9013 23.723 -4.31269 0.726286 0.662998 0.181503
55.8048 9.2912 -0.816452 0.858851 0.0782774 0.506209
55.6122 16.9146 -4.77006 0.872864 0.391405 0.291394
56.729 11.5618 -3.21349 0.902201 0.146532 0.405663
54.4368 16.7167 -1.79417 0.819467 0.350025 0.453824
48.8146 21.006 3.24317 0.689177 0.520997 0.503584
52.8319 20.947 -3.37729 0.774837 0.534902 0.336909
51.603 17.6238 2.09356 0.772533 0.360557 0.522677
53.3291 11.9268 2.39938 0.814675 0.171773 0.553894
53.9347 14.3189 0.555597 0.810528 0.270988 0.51924
52.5381 18.988 -0.421162 0.763821 0.42775 0.483329
41.3223 -8.19606 -60.1162 0.433303 0.0986487 -0.895833
52.721 3.13674 -56.8523 0.561508 0.00749684 -0.827438
49.6646 3.61203 -58.6211 0.430767 0.0281403 -0.902024
47.0861 5.18745 -59.018 0.264435 0.655456 -0.707426
44.56 4.02819 -60.5291 0.292958 0.220001 -0.93047
41.997 0.751655 -61.3343 0.302931 -0.0476672 -0.95182
40.7541 3.86767 -62.2951 0.815079 -0.0395171 -0.578
53.284 -3.62634 -54.4085 0.507311 -0.704577 -0.496192
47.2843 -2.91998 -58.9714 0.398993 -0.35485 -0.845509
49.8624 -4.0299 -56.6402 0.352784 -0.762811 -0.541907
56.4834 -5.33553 -48.9254 0.705797 -0.476898 -0.523851
53.663 -8.67018 -50.1261 0.80013 -0.249857 -0.54531
48.7353 11.5072 -59.0284 0.410538 0.0561676 -0.910112
58.0574 21.009 -35.3347 0.862787 0.505548 -0.00451159
59.7948 17.6578 -35.7287 0.91825 0.395708 -0.0152728
60.9222 14.4602 -36.5759 0.961742 0.273919 -0.00450421
55.7938 16.3379 -52.5339 0.779418 0.276564 -0.562156
53.9753 14.4038 -55.266 0.659872 0.168335 -0.732279
43.5937 12.7209 -60.8724 0.290438 0.0488406 -0.955647
49.5878 14.9395 -58.2399 0.48067 0.131371 -0.867005
46.7411 14.2642 -59.6481 0.353503 0.0900876 -0.931085
57.9747 12.6011 -50.8199 0.858136 0.194494 -0.475157
58.896 14.2741 -48.0435 0.895027 0.249984 -0.369372
56.4924 11.415 -53.2933 0.770196 0.135429 -0.623263
51.9761 12.1639 -57.2136 0.541275 0.112495 -0.833287
55.6196 24.3581 -37.1164 0.762831 0.645614 -0.0356639
58.7668 19.615 -38.2449 0.880709 0.471864 -0.0411869
61.8468 9.49737 -36.8224 0.993673 0.101776 -0.0475028
61.5703 9.38301 -40.6122 0.987771 0.100397 -0.119283
61.2854 12.2554 -39.4221 0.978893 0.187679 -0.0809023
52.2917 27.6927 -36.8347 0.645074 0.763476 -0.0313674
53.8071 26.1175 -39.8738 0.70406 0.705287 -0.0828797
60.7611 11.6844 -43.7306 0.963207 0.182736 -0.19708
55.8208 22.4419 -45.688 0.793806 0.56288 -0.230301
54.4373 24.9554 -43.0992 0.72763 0.670565 -0.144557
58.1487 19.2003 -44.2474 0.863377 0.458039 -0.211614
59.8642 14.8694 -44.3714 0.935961 0.264462 -0.232458
57.0672 21.7154 -42.3215 0.832228 0.539075 -0.129593
59.6167 17.1334 -41.381 0.909756 0.389509 -0.143621
39.7495 31.6833 -51.954 0.265644 0.915214 -0.303014
42.9388 31.7252 -47.9301 0.331288 0.924509 -0.188497
46.1063 30.5203 -47.0657 0.451624 0.872295 -0.187449
47.3665 30.4394 -43.8734 0.462171 0.876786 -0.13283
42.9324 30.5057 -52.0204 0.374873 0.853854 -0.361115
50.3595 28.7238 -42.5732 0.572371 0.81093 -0.12159
45.5381 28.4174 -53.4134 0.492934 0.739327 -0.458706
51.7329 27.0872 -45.409 0.660903 0.724083 -0.197256
42.9581 27.9968 -56.1339 0.404587 0.699936 -0.588557
52.3091 24.9048 -49.6526 0.683816 0.631994 -0.364662
47.5992 25.7247 -54.8394 0.539505 0.605581 -0.584983
50.0831 25.5988 -52.2049 0.633532 0.640262 -0.434399
49.8341 27.4643 -49.1492 0.610139 0.735982 -0.293362
40.3113 30.1394 -54.9774 0.328327 0.794912 -0.510212
45.5524 29.9692 -50.0685 0.468881 0.835013 -0.287931
58.2561 17.2212 -47.0398 0.876484 0.370076 -0.307928
60.1554 10.2505 -46.7897 0.936912 0.0939478 -0.336705
59.5236 6.45179 -48.8986 0.918044 -0.0165265 -0.396135
58.2172 3.40336 -50.9946 0.867695 -0.12301 -0.481637
44.1292 -1.6317 -60.4845 0.324164 -0.0916803 -0.941548
50.542 -13.6532 -46.9493 0.60795 -0.764778 -0.213335
52.3374 -12.819 -44.2594 0.652681 -0.739921 -0.162863
52.9891 -13.1098 -35.8736 0.665916 -0.745988 -0.0075565
50.5841 -0.961376 -57.6663 0.513029 -0.145512 -0.845948
46.9782 1.77089 -59.7173 0.351154 -0.0589603 -0.93446
57.0285 -8.57173 -36.3315 0.821987 -0.569349 -0.0134147
58.2024 -2.70467 -47.7779 0.87576 -0.320453 -0.361046
61.7305 3.36985 -36.4113 0.989631 -0.142518 -0.0178493
55.638 -1.0274 -53.2996 0.763779 -0.231589 -0.602501
57.5635 -0.449154 -50.7381 0.854499 -0.227091 -0.467184
55.8194 2.82928 -54.1182 0.733714 -0.127778 -0.667336
53.468 -0.142301 -55.7785 0.621367 -0.157262 -0.767575
55.1983 -10.8963 -35.4113 0.751859 -0.659258 -0.00934406
54.2198 -11.5153 -41.324 0.71342 -0.691787 -0.111639
59.553 -4.09133 -37.4687 0.903807 -0.425832 -0.0424393
60.8944 -0.376955 -37.7368 0.962424 -0.267719 -0.0454638
60.0763 -2.20459 -40.4814 0.931553 -0.346387 -0.110568
55.9694 -9.76917 -39.2587 0.771335 -0.633402 -0.062009
58.1282 -6.59376 -39.4066 0.864479 -0.497888 -0.0691644
61.7315 4.75631 -39.1479 0.991643 -0.099333 -0.0823194
43.0204 -16.1604 -52.7254 0.39218 -0.843003 -0.368158
56.9085 -7.97014 -42.2738 0.815685 -0.564405 -0.126907
60.9706 1.75856 -42.0128 0.97114 -0.180943 -0.155393
59.1095 -3.47142 -43.4713 0.907788 -0.378441 -0.180838
57.663 -5.42542 -45.6606 0.858689 -0.445526 -0.253297
59.4974 0.033578 -46.6142 0.92694 -0.252855 -0.277211
60.6872 6.33287 -45.6569 0.959738 -0.0140485 -0.280544
43.596 -14.1579 -55.4826 0.433641 -0.703002 -0.563688
46.5758 -13.934 -53.0625 0.508037 -0.724206 -0.466287
50.8007 -12.038 -50.3902 0.642509 -0.683486 -0.346452
55.6553 -8.09834 -46.9644 0.792152 -0.545532 -0.273661
60.0653 3.78869 -47.0548 0.937193 -0.0906733 -0.336819
46.7121 -11.4208 -55.8806 0.504969 -0.5486 -0.666366
49.0433 -11.5306 -53.5792 0.586396 -0.628927 -0.51048
52.7999 -11.5478 -47.0912 0.696028 -0.675944 -0.242167
55.1846 -9.76753 -44.3147 0.760287 -0.622706 -0.184933
53.8481 26.3105 -33.9162 0.713279 0.70088 -0.00033906
57.2015 22.3467 -32.0552 0.834863 0.550456 -0.00149485
59.5827 18.1404 -32.2017 0.901404 0.432976 -0.00167736
60.7074 15.1993 -32.2089 0.951655 0.307166 -0.0015148
61.5225 11.9656 -34.3983 0.979813 0.19988 -0.00386601
61.7313 10.7742 -31.2928 0.994033 0.109058 -0.00239773
61.994 6.70525 -34.4998 0.999825 -0.0185904 0.002014
61.8778 4.58722 -31.3679 0.995448 -0.0952575 0.00318847
61.4451 1.56473 -32.6724 0.973843 -0.22721 0.00236498
60.6071 -1.56138 -34.8264 0.946132 -0.323781 0.001093
59.5574 -4.19657 -32.2568 0.918092 -0.39633 0.00547186
56.1459 -9.78454 -31.3944 0.762398 -0.647105 -0.0022726
52.2748 -13.732 -32.0982 0.668144 -0.743904 -0.0138056
41.4235 -19.2223 -33.5992 0.255143 -0.966897 0.00350644
38.8024 -19.7292 -31.3793 0.155294 -0.987868 0.00063587
59.9202 9.03966 -19.9874 0.998734 0.0466743 -0.018748
59.2786 13.0686 -23.6521 0.970123 0.212069 -0.117849
57.0876 18.712 -24.4609 0.874651 0.482705 -0.0445074
50.0057 27.0016 -22.6704 0.0290143 -0.999579 -0.000309026
48.6461 31.0294 -40.8567 0.811553 0.0197553 -0.583945
36.8926 32.9409 -49.9665 0.32873 0.328501 -0.885451
52.4807 27.6684 -27.5242 0.530779 -0.839994 -0.112623
53.3618 30.2071 -30.5281 0.94355 -0.195659 -0.267266
52.6826 32.5704 -32.4706 0.937815 0.104053 -0.331174
54.4462 30.7352 -25.8355 0.989082 -0.0472907 -0.13957
54.806 30.3451 -22.2078 0.984139 -0.159179 -0.0783127
51.7045 30.7819 -35.3086 0.912864 -0.0427538 -0.40602
51.6456 28.3384 -33.3377 0.732295 -0.627643 -0.264214
50.0694 29.7042 -38.3311 0.852953 -0.246949 -0.459877
59.137 18.2651 -29.0417 0.8306 0.382894 0.404347
56.9611 21.5011 -28.4241 0.722191 0.465313 0.511785
60.8948 13.6629 -29.3207 0.92438 0.241258 0.295492
61.8429 7.79715 -29.701 0.982181 0.0438507 0.182748
53.2277 26.9036 -30.8454 0.656516 0.752907 0.0460126
54.6283 24.6527 -28.5579 0.629205 0.584906 0.511846
52.2716 -13.1593 -28.8387 0.588943 -0.699807 0.404248
45.3669 -17.1551 -28.3737 0.348497 -0.785251 0.511793
49.1984 -14.8904 -28.1192 0.419055 -0.670498 0.61223
42.4433 -18.907 -30.2871 0.273125 -0.959812 0.064522
47.416 -16.9552 -30.7821 0.444219 -0.89495 0.0416461
59.1191 -3.05115 -28.1677 0.734923 -0.292157 0.61199
58.1996 -6.75009 -30.4393 0.86652 -0.495003 0.0641558
56.0203 -8.50081 -28.1551 0.641683 -0.462401 0.611905
61.0352 0.668165 -29.5032 0.928625 -0.224435 0.295439
36.6292 -15.3936 13.2438 0.627834 -0.665973 -0.402871
42.0498 -10.563 8.8064 0.66269 -0.699731 0.266867
50.892 -1.42822 4.46674 0.787013 -0.294296 0.542218
52.2561 4.1554 4.49899 0.82293 -0.088028 0.561281
36.0767 -15.7583 2.78019 0.202366 -0.944642 0.258264
37.0337 -17.2627 -4.2899 0.179369 -0.980746 0.0772314
38.6366 -16.2797 -1.14192 0.265882 -0.934063 0.238398
40.9582 -16.0798 -3.46981 0.336879 -0.92766 0.16112
44.9086 -10.2517 4.71407 0.593858 -0.665804 0.451706
46.538 -10.5113 2.14913 0.613457 -0.65862 0.435763
53.0919 -2.83635 0.38551 0.794668 -0.33718 0.504789
50.8205 -8.94443 -2.29058 0.720833 -0.604542 0.339012
53.5367 -5.18242 -2.44303 0.793556 -0.459489 0.398921
50.6076 -4.28927 3.04555 0.762944 -0.371675 0.528937
51.4886 -5.86379 0.427682 0.758273 -0.441417 0.479764
47.8976 -7.54469 3.96521 0.688805 -0.537283 0.486697
49.5671 -8.51835 0.485772 0.70627 -0.547524 0.448776
54.8377 1.54433 -0.0574387 0.823781 -0.204211 0.528851
55.3302 -1.16114 -2.336 0.848821 -0.303919 0.432592
57.4225 4.95623 -4.0601 0.926323 -0.0661587 0.370876
55.8196 6.0124 -0.692804 0.867271 -0.0154142 0.497598
53.9335 5.08642 2.16483 0.826632 -0.0415527 0.561207
52.9147 0.820041 2.56767 0.801203 -0.228933 0.552868
38.9507 -14.6305 3.49559 0.365567 -0.868848 0.333863
39.547 -12.3987 9.79486 0.603733 -0.792013 0.0906725
37.7539 -14.1284 6.82665 0.465795 -0.86151 0.202078
45.736 -13.8294 -3.80512 0.53452 -0.832542 0.145471
48.5133 -11.482 -2.70799 0.632549 -0.715868 0.295659
45.1062 -12.9292 -0.0356738 0.547913 -0.748714 0.373119
41.794 -12.1416 5.80381 0.503396 -0.780822 0.370013
42.7363 -14.57 -0.613499 0.417352 -0.840537 0.345421
56.69 16.5319 -8.03743 0.896771 0.372089 0.239482
59.5431 7.5154 -13.1061 0.990169 0.0300276 0.136614
59.8674 7.91972 -16.6398 0.997611 0.0298698 0.0622937
56.807 14.0293 -5.10775 0.922598 0.270393 0.275137
49.0644 26.9592 -10.7908 0.616945 0.775597 0.133521
50.502 26.5871 -19.2036 0.63322 0.773965 0.00321476
53.5589 21.3657 -6.62761 0.770372 0.593996 0.231724
57.7789 10.9217 -5.96676 0.957211 0.126841 0.260112
51.5684 24.326 -8.5079 0.668443 0.721264 0.181555
58.309 7.89762 -6.8406 0.964155 0.0424018 0.261931
59.8651 9.46119 -23.9042 0.995509 0.094661 -0.00114563
54.5571 22.5566 -25.3163 0.776388 0.630208 -0.00771219
52.0921 25.2281 -24.8403 0.68089 0.73238 -0.00294543
42.7372 -16.7611 -25.0984 0.328925 -0.944356 0.000282497
45.9663 -15.4516 -22.4711 0.438018 -0.89896 0.00330837
47.0313 -14.9074 -25.5544 0.457762 -0.889073 -0.0018085
48.1441 -14.2454 -20.1296 0.510878 -0.859651 0.00200956
49.7536 -13.1653 -25.1424 0.578231 -0.815872 0.000749451
50.5876 -12.5271 -21.4117 0.64548 -0.763775 -0.00173609
53.1089 -10.2297 -22.9919 0.733821 -0.67934 -0.00204198
55.7384 -6.94123 -24.4109 0.820111 -0.572204 -0.000878789
56.9402 -4.98371 -22.3672 0.858079 -0.513517 0.00118004
58.634 -1.12716 -21.5077 0.958305 -0.285702 -0.0050875
59.548 2.3306 -23.6451 0.982489 -0.186311 -0.00167226
35.8888 -17.7482 -7.79023 0.119382 -0.991207 0.0570708
41.809 -16.5211 -9.26816 0.343915 -0.932082 0.113777
46.8536 -13.9617 -8.01622 0.489202 -0.859663 0.147173
48.1256 -14.0595 -14.6987 0.506067 -0.859664 0.0698222
49.7494 -11.9452 -8.44798 0.622971 -0.763705 0.1693
51.3177 -11.5147 -13.4471 0.639482 -0.763733 0.0881781
50.7888 -12.3119 -17.6837 0.644291 -0.763721 0.0402356
52.3051 -9.89651 -9.8307 0.745334 -0.646905 0.161219
55.1266 -6.15198 -9.54743 0.839324 -0.512397 0.181616
56.755 -1.49184 -6.69875 0.898861 -0.363866 0.244233
57.841 -1.81286 -12.5523 0.922693 -0.363911 0.127306
57.4347 1.75555 -5.6898 0.940683 -0.205507 0.269968
58.2285 0.884197 -9.71004 0.96153 -0.205415 0.182386
59.4437 2.77191 -15.4687 0.974953 -0.20542 0.0852603
41.8193 -16.8339 -13.0988 0.278943 -0.958849 0.0529107
42.596 -16.7986 -19.2994 0.283866 -0.958857 0.00355986
45.8821 -15.4505 -17.6764 0.437199 -0.898951 0.0272743
45.583 -15.3311 -13.0379 0.430368 -0.898956 0.0816182
42.6339 -15.7785 -6.17118 0.404573 -0.898955 0.167934
48.8823 -13.155 -11.3353 0.567067 -0.814485 0.122671
53.1981 -9.99764 -16.4428 0.703776 -0.707752 0.0615375
51.0604 -10.2173 -6.42803 0.670711 -0.707751 0.221892
53.7061 -9.55979 -19.8047 0.762564 -0.646843 0.00952408
55.0498 -7.40611 -14.0648 0.808351 -0.58163 0.0909669
53.5154 -7.6392 -7.20854 0.784997 -0.581643 0.213241
56.4135 -5.85217 -19.5086 0.858684 -0.512392 0.0107622
56.632 -4.71372 -13.2823 0.889738 -0.439655 0.12276
56.7192 -3.28244 -9.63723 0.877846 -0.439662 0.189958
55.3456 -4.60021 -6.7261 0.866746 -0.439661 0.235477
58.077 -2.53932 -18.8397 0.931386 -0.363845 0.0117008
58.9193 0.0395025 -17.2253 0.95646 -0.285693 0.0597045
59.6014 2.61124 -19.8717 0.978589 -0.205458 0.0122594
58.725 4.92716 -8.80567 0.969864 -0.123828 0.209835
59.2312 4.06248 -12.1533 0.983 -0.123821 0.135574
58.8664 -0.423259 -25.7977 0.945216 -0.320969 0.0595404
56.8913 -5.19046 -26.621 0.85163 -0.493566 0.17641
51.9328 -11.4027 -26.2685 0.688162 -0.724557 0.0380999
60.4166 11.1269 -27.7745 0.702914 0.134982 0.69835
58.6711 15.3648 -26.8083 0.902307 0.312843 0.296599
60.0938 7.87766 -26.8173 0.953821 0.0454312 0.296918
59.9918 3.97552 -26.9738 0.909186 -0.0875132 0.407089
40.0033 8.18641 -71.4298 0.999548 0.0164188 0.0252005
40.1881 10.1617 -73.6631 0.954494 0.0982888 0.281568
43.0132 11.4403 -76.9165 0.452797 0.192959 0.870484
41.9468 8.16193 -75.6501 0.589262 0.141458 0.795462
39.7013 13.2271 -72.0508 0.98806 0.154069 4.62879e-05
40.1484 14.796 -75.4375 0.8207 0.211942 0.530597
36.8537 25.4819 -77.4629 0.35149 0.443983 0.824217
29.8278 33.5787 -91.1894 0.0106863 0.997471 0.0702638
32.8725 33.2409 -90.4674 0.157547 0.985013 0.0701978
45.6721 23.1062 -90.3138 0.908648 0.412569 0.0643901
41.7581 22.8601 -79.2135 0.669188 0.361075 0.649471
28.0601 32.877 -85.8343 -0.086044 0.978084 0.189601
43.5897 25.5653 -85.5707 0.788872 0.564075 0.243927
40.8496 28.2972 -84.5394 0.661528 0.707832 0.247699
36.3051 31.2386 -84.5539 0.380583 0.890601 0.24897
25.4765 32.8642 -88.7682 -0.223171 0.970993 0.0858328
44.0066 25.8119 -88.7292 0.807612 0.580494 0.103871
41.8188 28.2882 -87.8758 0.713288 0.692526 0.107835
39.7564 30.214 -89.2481 0.56372 0.818579 0.110213
30.2379 33.3015 -88.0884 0.0109884 0.994772 0.101532
37.2149 31.4725 -87.4003 0.432772 0.887398 0.158848
33.8137 32.5928 -86.6761 0.250789 0.95527 0.156728
35.9682 28.109 -78.9538 0.341445 0.620336 0.706115
27.8223 30.5116 -80.1197 -0.11562 0.822686 0.556615
42.9475 24.2584 -81.8853 0.763724 0.490248 0.419979
38.9455 28.5534 -81.8621 0.550582 0.718091 0.425682
33.6349 31.2636 -82.1977 0.227732 0.876524 0.424081
30.6055 31.6892 -82.0562 0.0513367 0.90568 0.420842
43.9091 21.2837 -80.9994 0.814586 0.320721 0.483309
30.7152 29.7731 -79.1046 0.0802046 0.769383 0.633732
40.1531 25.8079 -79.7854 0.556421 0.535603 0.635236
26.7979 31.9157 -83.0863 -0.173669 0.920801 0.349236
47.5553 17.1725 -91.6216 0.964884 0.258205 0.0482646
41.1119 -11.9949 -74.9563 0.0165514 0.00130751 0.999862
43.2142 -8.02248 -75.0577 0.0494307 0.0101179 0.998726
46.9166 -12.7561 -75.2248 0.0852429 0.0220923 0.996115
43.5433 -14.5743 -75.0057 0.0390901 0.0117868 0.999166
48.6151 -4.92248 -76.0876 0.346243 0.135885 0.928252
44.5755 3.71244 -76.0564 0.317133 0.155582 0.935533
46.4216 -7.36711 -75.3601 0.140898 0.0541924 0.98854
51.2164 3.27113 -90.1623 0.965731 0.256564 0.0392132
51.1572 2.66102 -86.3577 0.963553 0.258475 0.0689691
50.2982 3.21342 -81.9748 0.922183 0.287675 0.258498
48.1568 2.55385 -77.7873 0.666076 0.27416 0.693671
50.859 -3.70431 -78.0856 0.778205 0.273739 0.565212
52.2328 -3.39128 -81.9011 0.947537 0.258671 0.187784
52.4147 -9.20388 -77.8253 0.795377 0.223629 0.563351
53.1561 -3.80154 -91.2588 0.966268 0.253361 0.0461942
54.2395 -8.18757 -89.6533 0.966627 0.250777 0.052383
54.1647 -11.7066 -80.658 0.953185 0.234956 0.190353
53.991 -8.70513 -84.3435 0.966046 0.245433 0.0807268
53.2728 -7.88803 -81.012 0.948509 0.253314 0.190164
53.0693 -5.26497 -84.1351 0.958868 0.255951 0.122723
43.4606 18.621 -79.2481 0.725008 0.219762 0.652739
45.6315 19.3045 -83.2695 0.917739 0.256166 0.303536
46.2121 20.474 -86.7643 0.947919 0.267591 0.172757
46.0195 16.2417 -82.0095 0.859816 0.268519 0.434297
47.0656 16.7089 -85.626 0.944909 0.271066 0.183493
48.3753 13.9414 -90.6019 0.964292 0.261092 0.0444029
48.1204 13.956 -87.3421 0.954196 0.270495 0.12784
48.8868 9.17037 -83.6672 0.932611 0.28691 0.218906
45.5255 12.4078 -79.1907 0.733506 0.272554 0.622642
47.6441 12.4809 -83.0279 0.902424 0.288984 0.319561
49.2048 10.2909 -87.9976 0.962381 0.262338 0.0707185
49.9582 7.02774 -86.3474 0.955705 0.269211 0.118968
47.7758 7.58192 -79.7172 0.814549 0.304785 0.493575
44.824 8.4939 -77.2168 0.546662 0.234461 0.803858
42.9332 15.0851 -77.7529 0.558808 0.208812 0.802577
47.9317 -1.24728 -76.4825 0.473434 0.199123 0.858027
52.3647 -0.819825 -91.4018 0.964977 0.258662 0.0437463
52.2028 -0.728807 -88.3074 0.965937 0.25537 0.0418645
51.5232 0.158558 -83.4891 0.957809 0.261732 0.118733
50.8165 -0.623747 -79.8825 0.886447 0.289054 0.361467
26.2973 34.5479 -92.0361 -0.0785869 0.400146 0.913076
59.0026 -7.11683 48.6302 0.937735 -0.34608 -0.0296949
57.3169 -11.2279 45.7526 0.93753 -0.339883 -0.0742799
57.214 -10.1471 41.8576 0.937553 -0.309594 -0.158573
59.6278 -4.41829 44.9839 0.937797 -0.316571 -0.142546
58.5025 -7.42128 44.2956 0.937524 -0.322146 -0.131417
57.2998 -7.66805 38.3409 0.937575 -0.277794 -0.209247
59.0352 -3.34696 40.4988 0.937526 -0.25212 -0.239751
57.0284 -5.01796 34.7071 0.937521 -0.215257 -0.273349
58.293 -1.84666 36.6247 0.937581 -0.190867 -0.290709
59.4191 0.541334 38.7151 0.937795 -0.1755 -0.299567
57.1603 -1.50219 32.9018 0.937694 -0.15822 -0.309348
58.1434 1.73328 34.4332 0.937526 -0.110348 -0.329953
59.4607 3.73871 37.5393 0.937583 -0.0815391 -0.338067
58.437 8.58787 34.4414 0.937593 0.0309607 -0.346353
56.8821 6.53964 30.1601 0.9378 -0.00775373 -0.347088
58.4554 5.35275 34.4897 0.9377 -0.0274126 -0.346363
57.3998 9.61118 31.7422 0.937594 0.0373345 -0.345721
59.2239 10.6141 36.9741 0.937531 0.0890175 -0.33632
57.2975 13.0607 32.2819 0.937503 0.126495 -0.324171
59.4604 13.5772 38.9162 0.937574 0.178182 -0.298675
58.4068 14.2639 36.053 0.937539 0.161227 -0.308264
57.8197 17.8321 36.4735 0.937586 0.226352 -0.264004
58.9836 17.0799 40.0192 0.937257 0.254795 -0.237969
59.7866 16.6999 42.8849 0.937778 0.278968 -0.206759
58.6889 20.1276 42.7524 0.937589 0.302401 -0.171698
56.5759 25.6508 41.0194 0.937639 0.315921 -0.145009
59.921 18.1408 46.4623 0.937802 0.331639 -0.102678
58.502 22.0462 46.2001 0.937556 0.336308 -0.0888003
57.3592 25.1045 45.7175 0.937556 0.336308 -0.0888003
56.783 27.1674 50.8378 0.937805 0.347162 0
57.9246 24.0695 51.0713 0.937574 0.346496 0.0299075
58.964 21.2027 51.678 0.937605 0.346416 0.0298876
57.9212 23.5742 54.2895 0.937573 0.336262 0.0887966
56.7143 26.9956 53.888 0.937757 0.34216 0.0594778
56.7969 25.8506 57.1493 0.93752 0.32751 0.117443
58.8925 20.3226 55.7425 0.937185 0.316929 0.145743
57.7602 22.9065 57.4523 0.937598 0.316021 0.145056
58.1662 20.1505 59.958 0.937792 0.275362 0.211476
56.9812 23.5736 60.6259 0.937558 0.286589 0.197107
59.6961 16.2427 58.2168 0.937752 0.262995 0.226836
57.15 19.8398 64.3296 0.937546 0.226763 0.26379
57.9009 16.2694 64.5212 0.937553 0.178224 0.298715
57.2378 14.5061 67.4823 0.937785 0.151605 0.312371
58.6742 13.2172 63.7956 0.937785 0.151605 0.312371
56.4747 13.0928 70.173 0.937547 0.0960673 0.334331
57.5406 10.8899 67.7828 0.937578 0.0669413 0.341272
59.0845 9.16915 63.8762 0.937616 0.0668909 0.341179
56.6091 8.52284 70.666 0.937801 0.0373022 0.345164
57.9956 7.90995 66.9587 0.937503 0.00551611 0.347935
56.562 4.76166 70.7364 0.937762 -0.0224071 0.346554
58.8751 5.79821 64.5569 0.937667 -0.0335347 0.345912
57.8556 4.5899 67.1819 0.937608 -0.0521667 0.343758
56.9229 2.11779 69.2562 0.937519 -0.081577 0.338237
58.8283 0.839544 63.3766 0.937764 -0.145949 0.315116
57.1082 -0.95631 67.6524 0.937522 -0.138309 0.319254
58.0668 -2.88945 63.5517 0.937585 -0.215127 0.27323
56.6495 -4.69118 66.9547 0.937695 -0.19068 0.290463
59.1381 -2.82984 59.7931 0.937663 -0.23772 0.25353
57.2076 -6.63402 63.3628 0.937677 -0.255905 0.235105
58.057 -6.01844 60.5968 0.937676 -0.277592 0.209061
59.8953 -2.93155 56.4076 0.937699 -0.291667 0.188816
57.4263 -9.49672 58.302 0.937583 -0.309525 0.158534
58.8474 -5.78998 57.1375 0.937803 -0.301396 0.172297
56.9304 -11.8259 56.1152 0.937598 -0.332059 0.103182
57.9644 -9.40657 54.503 0.937614 -0.332029 0.103132
56.7548 -13.2445 50.5217 0.937519 -0.347612 0.0149532
57.928 -10.0391 51.4179 0.937765 -0.346449 0.0238695
59.0522 -6.96936 51.6106 0.937603 -0.344967 0.0435615
11.1725 -38.96 48.7046 0.0145251 -0.999762 -0.0162667
48.385 -17.3233 57.1601 0.838353 -0.516544 0.174203
48.2699 -17.6323 43.4321 0.834814 -0.533933 -0.134168
27.0319 -28.0414 25.6243 0.397368 -0.748871 -0.530369
24.1241 -29.1708 25.4193 0.339169 -0.781103 -0.524254
20.3034 -29.9527 24.729 0.213349 -0.800916 -0.559478
16.7353 -30.6024 24.4571 0.161046 -0.802335 -0.574737
-0.719527 -29.9697 24.9164 -0.218274 -0.80098 -0.557483
-28.4333 -15.1712 37.9895 -0.836389 -0.48787 -0.249872
-28.7683 -16.5155 42.4126 -0.833925 -0.527021 -0.163761
-28.6403 -14.0992 63.377 -0.837166 -0.458924 0.297561
-27.4641 -8.31771 71.9088 -0.827466 -0.31116 0.467417
10.8556 -19.3702 87.7313 0.0314122 -0.583176 0.811738
20.6034 -18.9042 86.5558 0.218323 -0.556686 0.801521
23.9804 -18.4023 85.7744 0.294648 -0.562048 0.772842
29.1625 -17.3902 84.0324 0.407513 -0.528865 0.74447
48.4827 -9.69304 68.9261 0.827842 -0.36146 0.428981
-27.8885 -10.4326 69.4478 -0.827843 -0.361485 0.428958
-25.7162 -11.7857 72.1199 -0.771383 -0.401839 0.49345
43.5395 -13.2498 74.1416 0.733079 -0.4414 0.517457
46.4249 -12.7506 70.0356 0.77706 -0.441421 0.448693
48.4501 -12.4702 66.1172 0.832216 -0.441394 0.33554
-27.0078 -13.9437 67.5809 -0.814667 -0.441428 0.376111
-23.5186 -14.1227 73.4253 -0.733069 -0.441408 0.517464
40.6715 -15.2778 76.0962 0.66766 -0.480153 0.568931
44.2614 -15.4173 71.0163 0.738906 -0.480163 0.472718
46.484 -14.9456 67.4434 0.796418 -0.48013 0.367688
47.8522 -15.7148 62.966 0.826542 -0.480139 0.29376
-25.1559 -15.7521 69.0892 -0.778847 -0.480137 0.403567
32.5985 -17.3949 81.8445 0.509064 -0.517974 0.687428
35.4025 -16.7522 80.161 0.539812 -0.517959 0.663567
38.0167 -17.012 77.5226 0.597937 -0.517943 0.611724
42.0823 -17.1594 72.4665 0.698836 -0.517959 0.493303
-26.947 -16.9774 63.271 -0.806013 -0.517959 0.286464
-21.2769 -17.3554 73.3907 -0.675667 -0.517957 0.52459
-19.7769 -16.1553 76.3873 -0.651071 -0.517969 0.55481
-17.2459 -16.6355 78.594 -0.597928 -0.517964 0.611715
39.6728 -18.2764 74.4742 0.633261 -0.554825 0.539583
44.3539 -18.2968 67.2347 0.738683 -0.554848 0.382742
47.2891 -17.83 60.4962 0.806028 -0.554811 0.206162
48.0876 -18.7714 50.224 0.831756 -0.554818 0.0189657
48.654 -17.7347 47.0185 0.830038 -0.554809 -0.0567813
46.6338 -19.0523 40.3785 0.805998 -0.554857 -0.206155
46.5608 -17.8934 37.4815 0.783912 -0.554848 -0.278613
-26.6239 -17.7969 37.4695 -0.783913 -0.554848 -0.278612
-26.6771 -19.0556 40.5601 -0.806005 -0.554846 -0.206157
-27.4194 -19.1652 44.5769 -0.821412 -0.554843 -0.132031
-28.5786 -17.9577 48.1073 -0.830034 -0.554815 -0.0567782
-28.4769 -18.1506 51.2697 -0.831757 -0.554815 0.0189823
-23.4048 -18.8946 68.198 -0.738693 -0.554829 0.382751
26.6491 -20.1738 83.2217 0.354885 -0.590602 0.724739
29.8386 -19.8591 81.6915 0.419303 -0.590592 0.689483
45.491 -19.3677 62.7371 0.760377 -0.590594 0.270232
46.4328 -19.9355 57.919 0.790102 -0.590579 0.164179
47.1194 -20.0004 52.8091 0.805071 -0.590614 0.0551049
-24.6572 -19.4762 35.4792 -0.747301 -0.590584 -0.30455
-24.6859 -20.9529 38.6117 -0.760362 -0.590607 -0.270246
-26.4615 -20.9094 47.4834 -0.805068 -0.590623 -0.0550521
-26.7291 -20.6499 51.1122 -0.806747 -0.590611 0.0183971
-27.3036 -19.5529 54.3344 -0.801745 -0.590593 0.0916773
-26.7962 -19.5646 57.4999 -0.79009 -0.590598 0.164171
-25.7438 -19.9044 60.6996 -0.771885 -0.590594 0.235354
-23.1576 -20.7514 65.7354 -0.732637 -0.590595 0.338291
-19.3373 -20.1334 72.8183 -0.637401 -0.59061 0.494874
-15.568 -19.4412 77.6892 -0.537219 -0.590613 0.602139
-12.6579 -19.7813 79.8072 -0.480245 -0.59061 0.648495
-9.71356 -20.1084 81.5533 -0.419294 -0.590592 0.689487
-4.45566 -19.8547 84.4892 -0.32146 -0.590602 0.740171
0.859159 -20.7092 85.6261 -0.21769 -0.590572 0.777069
5.03036 -20.5878 86.5255 -0.109916 -0.590629 0.799423
-21.9124 -21.4699 33.1753 -0.692938 -0.625243 -0.359038
-25.1499 -22.3885 54.0403 -0.775377 -0.625247 0.0886383
-24.756 -21.9684 58.2957 -0.756076 -0.625255 0.193405
-20.9559 -21.7594 68.2102 -0.675864 -0.625256 0.390209
-17.0223 -21.9483 73.4442 -0.594025 -0.625247 0.506163
-11.5492 -22.4784 78.0423 -0.464464 -0.62524 0.627175
13.5926 -21.1134 86.2919 0.0709751 -0.625275 0.77717
18.5725 -21.1661 85.4033 0.176135 -0.625252 0.760287
21.3891 -22.212 83.714 0.244541 -0.625241 0.74113
27.7262 -22.3816 80.7013 0.405502 -0.625251 0.666805
31.1592 -21.4352 79.3718 0.464472 -0.625237 0.627171
34.388 -21.0306 77.1788 0.51954 -0.625258 0.582349
37.1171 -21.0725 74.4085 0.570373 -0.625251 0.532669
39.9931 -21.3025 70.4321 0.637562 -0.625249 0.450086
41.9929 -21.1635 67.3519 0.692944 -0.625238 0.359034
43.2939 -21.8627 63.2247 0.722722 -0.625235 0.294541
43.844 -22.5213 59.999 0.74653 -0.625226 0.227564
44.94 -22.4267 55.4046 0.770543 -0.625244 0.123829
46.3114 -21.0021 46.4809 0.775376 -0.62525 -0.088624
45.272 -21.5506 42.6478 0.764102 -0.62525 -0.158778
44.5885 -20.9985 38.4398 0.735377 -0.625241 -0.261332
42.6025 -21.4984 34.5983 0.70854 -0.625248 -0.327163
41.3259 -21.148 31.5966 0.675863 -0.625248 -0.390223
-18.7051 -23.8707 31.6911 -0.633795 -0.658742 -0.405417
-22.1509 -22.8735 36.3308 -0.696714 -0.65876 -0.283946
-23.5805 -23.1245 41.1681 -0.728911 -0.658735 -0.186434
-24.2049 -23.1925 44.3459 -0.742813 -0.658766 -0.119395
-24.2584 -23.6707 49.5369 -0.752157 -0.658761 -0.0171326
-23.1506 -22.601 61.9042 -0.708916 -0.658749 0.251968
-21.437 -23.2674 64.5619 -0.683073 -0.658741 0.315391
-18.412 -22.8818 70.4328 -0.614649 -0.65876 0.433869
-5.52113 -22.9615 81.3139 -0.330816 -0.658738 0.67574
-0.107414 -23.3533 83.1102 -0.235749 -0.658754 0.714469
3.30213 -22.7633 84.4863 -0.136305 -0.658774 0.739891
6.77865 -23.0365 84.7417 -0.0684556 -0.658754 0.749238
9.80508 -22.5679 85.3014 0 -0.65874 0.752371
13.5337 -23.6425 84.1805 0.068457 -0.658735 0.749254
16.6974 -23.728 83.6276 0.136309 -0.658743 0.739918
24.1507 -23.4689 81.4747 0.299781 -0.658738 0.690069
35.0351 -23.5804 73.581 0.549903 -0.658714 0.51352
38.668 -23.7055 68.784 0.633788 -0.658744 0.405426
40.6124 -23.9309 64.964 0.683093 -0.658733 0.315364
44.6278 -23.2298 51.3843 0.752149 -0.65877 0.0171506
44.3884 -23.4488 47.894 0.750592 -0.658772 -0.0513011
42.4982 -23.5695 38.9369 0.708907 -0.658768 -0.251944
41.0142 -23.8837 35.9551 0.683062 -0.65876 -0.315377
39.6458 -23.6245 32.8156 0.651563 -0.658756 -0.376174
-19.9393 -24.433 34.8991 -0.641875 -0.690935 -0.332574
-21.3443 -24.9022 39.3802 -0.681162 -0.69095 -0.242088
-22.7189 -25.2468 52.1745 -0.721209 -0.690959 0.049323
-21.1836 -25.3974 59.7229 -0.691466 -0.69097 0.210794
-18.8032 -24.2975 67.5718 -0.626043 -0.690948 0.361471
-15.788 -24.9841 70.7299 -0.570995 -0.690983 0.443292
-13.3929 -24.2018 74.4518 -0.505306 -0.690955 0.516959
-10.8215 -24.8675 75.8675 -0.456211 -0.690916 0.560809
-8.10272 -24.4127 78.3707 -0.403351 -0.690951 0.599913
-2.41904 -24.2838 81.4122 -0.257544 -0.690939 0.675481
5.05591 -25.2594 82.4767 -0.0983936 -0.690913 0.716211
8.55186 -25.2022 82.8708 -0.0328707 -0.690923 0.72218
11.5644 -25.487 82.5931 0.0328702 -0.690938 0.722166
19.8975 -25.4144 81.1646 0.226521 -0.690935 0.686511
25.8545 -24.9468 79.0994 0.347134 -0.690924 0.634131
28.7116 -24.7022 77.6285 0.403359 -0.690922 0.59994
41.9755 -24.7235 59.3372 0.691475 -0.690953 0.210823
42.1047 -25.2978 43.6596 0.707793 -0.690935 -0.147101
36.4781 -24.4568 29.483 0.570998 -0.690982 -0.443289
-14.3645 -26.3717 29.8902 -0.526782 -0.721831 -0.448843
-15.9571 -26.8805 32.9289 -0.582985 -0.721847 -0.372916
-21.2207 -25.8298 42.1901 -0.670462 -0.721847 -0.171514
-22.3152 -25.5215 46.4112 -0.687599 -0.721822 -0.0786118
-21.7835 -25.7108 56.001 -0.677586 -0.721834 0.140831
-19.5165 -25.5447 63.6712 -0.628318 -0.721854 0.290073
-17.1566 -26.473 66.0965 -0.599324 -0.721846 0.346047
-13.0749 -26.4985 71.5214 -0.505781 -0.721838 0.472372
-4.4454 -25.6525 79.0602 -0.304305 -0.721853 0.621552
1.74494 -25.5265 81.5302 -0.186705 -0.721844 0.666395
16.0393 -26.4846 81.0095 0.125368 -0.721874 0.680574
29.2198 -26.7185 74.7541 0.436745 -0.721869 0.536805
32.4601 -25.578 73.5163 0.483794 -0.721824 0.494887
34.4525 -26.0748 70.6322 0.5268 -0.721823 0.448836
37.0062 -26.2046 66.8878 0.582963 -0.721845 0.372952
39.5255 -26.0557 62.325 0.640887 -0.721838 0.261176
42.1718 -25.5126 54.9139 0.683297 -0.721841 0.109775
42.2603 -25.7595 51.0725 0.691879 -0.721841 0.0157955
40.057 -26.7709 41.6061 0.661974 -0.721838 -0.201841
38.2193 -26.005 34.9384 0.614456 -0.721854 -0.318388
-16.9347 -27.7735 36.6531 -0.585888 -0.751384 -0.303573
-18.2923 -28.0143 40.6481 -0.621777 -0.75137 -0.220988
-19.7901 -27.6283 44.7676 -0.651504 -0.751385 -0.1047
-19.819 -27.9913 51.3901 -0.659702 -0.751377 0.0150219
-18.1242 -27.5239 61.5444 -0.611072 -0.751383 0.249026
-14.1048 -27.5773 68.4553 -0.521242 -0.751362 0.404676
-10.1674 -27.3829 73.0007 -0.439312 -0.751364 0.492399
-7.83483 -26.9904 75.4151 -0.368182 -0.751397 0.54758
-4.71903 -27.7435 76.3579 -0.316845 -0.751368 0.57884
-0.598423 -27.3272 78.779 -0.235087 -0.751397 0.616553
3.3708 -28.1523 78.9815 -0.14897 -0.751403 0.642807
6.70604 -27.8501 79.9001 -0.0600088 -0.751378 0.657138
18.0739 -28.0106 78.7796 0.178014 -0.751404 0.635377
22.333 -27.388 78.0011 0.262867 -0.751395 0.605233
36.9145 -28.0101 62.9198 0.599096 -0.751377 0.276618
38.9241 -27.6781 58.7557 0.631172 -0.751389 0.192448
39.8152 -27.5967 55.4554 0.651515 -0.751379 0.104682
40.1056 -27.7458 49.024 0.659693 -0.751385 -0.0150185
39.739 -27.6865 44.8619 0.651514 -0.751379 -0.104687
37.7785 -27.7488 38.4311 0.611071 -0.751388 -0.249014
34.5889 -27.7794 32.7416 0.53909 -0.751381 -0.380537
32.5385 -27.3695 29.448 0.482252 -0.751387 -0.45039
-18.7429 -28.5801 54.8258 -0.618525 -0.779453 0.0993928
-18.1843 -28.4471 58.0945 -0.599222 -0.779457 0.182702
-15.8204 -28.4362 63.955 -0.556222 -0.77946 0.288201
-11.0842 -28.5245 70.2815 -0.457837 -0.779457 0.427588
-6.40664 -29.439 72.8456 -0.372821 -0.779467 0.503425
9.9076 -28.5106 79.2934 0 -0.779453 0.626461
14.6825 -28.7102 78.67 0.113504 -0.779455 0.61609
26.1499 -28.2641 74.7953 0.349549 -0.779457 0.519867
28.8686 -28.8583 71.8188 0.417057 -0.779455 0.467454
32.9424 -28.3624 68.4716 0.494826 -0.779457 0.384181
36.3125 -29.3336 60.2206 0.580114 -0.779464 0.23644
39.5043 -28.226 52.1085 0.624987 -0.779462 0.0427748
34.4939 -29.1161 35.5647 0.542544 -0.779447 -0.313222
-14.5487 -29.6375 37.0274 -0.525437 -0.806087 -0.272285
-16.9067 -29.6026 42.8961 -0.573367 -0.806068 -0.146648
-17.4094 -29.7506 46.442 -0.587996 -0.806067 -0.0672073
-17.1917 -30.0015 52.6007 -0.587992 -0.80607 0.0672071
-16.2037 -30.3529 55.8171 -0.579442 -0.806067 0.120429
-15.6869 -29.6495 60.6586 -0.54805 -0.806069 0.223371
-9.11665 -30.5884 68.4347 -0.432525 -0.806077 0.403932
-2.9222 -30.131 73.9249 -0.284156 -0.806061 0.519154
4.72999 -30.3639 76.3635 -0.107158 -0.806057 0.582056
21.0844 -29.5637 75.677 0.235805 -0.806065 0.542822
23.7845 -30.5375 72.7921 0.307463 -0.806082 0.505666
29.2022 -30.2583 68.9954 0.413711 -0.806062 0.42321
31.4944 -30.475 65.8507 0.483479 -0.80608 0.341296
34.0984 -29.5147 64.2672 0.512571 -0.806065 0.295856
37.7955 -29.6437 49.9555 0.591665 -0.806071 -0.0134656
37.0934 -29.9151 45.8432 0.584319 -0.806068 -0.0939446
35.9488 -29.7106 40.3708 0.557647 -0.806077 -0.198168
31.4993 -29.6947 32.5624 0.450456 -0.806057 -0.383877
28.5627 -29.7262 29.5416 0.39401 -0.80607 -0.441597
-2.93557 -31.525 28.5467 -0.288882 -0.831143 -0.475131
7.51613 -31.3019 24.7599 -0.0326578 -0.830826 -0.555573
-13.0741 -31.4086 39.7226 -0.50483 -0.831147 -0.233113
-15.3476 -31.3697 49.8539 -0.555933 -0.831131 -0.0126199
-12.932 -31.0157 62.0596 -0.493724 -0.831137 0.255827
-10.7748 -31.3601 64.6191 -0.454277 -0.831138 0.320691
1.61687 -31.7018 73.4722 -0.198133 -0.831143 0.519562
10.2225 -31.4544 75.2935 0 -0.831134 0.556073
14.5536 -30.8685 75.7695 0.10068 -0.831144 0.546866
17.0677 -31.5886 74.0763 0.150061 -0.831134 0.535442
20.678 -31.5845 72.7097 0.244517 -0.831145 0.49941
26.3596 -31.1707 69.8231 0.350912 -0.831137 0.431359
32.9408 -31.0324 61.9899 0.493698 -0.831148 0.255842
35.1998 -30.7258 57.6347 0.53186 -0.831153 0.162202
36.0917 -30.7628 52.9904 0.552474 -0.831135 0.0631334
35.1966 -31.4597 49.0928 0.55593 -0.831133 -0.0126567
32.961 -31.3347 39.2123 0.504849 -0.831142 -0.233087
30.4522 -31.3672 35.0881 0.454279 -0.831141 -0.320681
28.1162 -31.3915 32.3837 0.406404 -0.831136 -0.379537
25.2905 -30.7511 28.7061 0.330945 -0.831139 -0.44686
21.9347 -31.5761 28.0625 0.267017 -0.831143 -0.487753
-12.2008 -32.5639 42.5356 -0.489258 -0.85463 -0.173881
-13.8202 -32.2053 46.8396 -0.515864 -0.854639 -0.0589679
-14.2 -31.9766 53.2991 -0.515866 -0.854637 0.0589768
-11.9769 -32.746 57.3464 -0.489261 -0.85463 0.173874
-6.36331 -31.9959 68.1449 -0.345653 -0.854638 0.38745
-3.38819 -31.8487 70.7402 -0.28972 -0.854637 0.430881
6.95932 -32.0121 74.2364 -0.0706984 -0.854644 0.51438
12.8836 -32.4228 73.5758 0.0706413 -0.854644 0.514386
28.0768 -32.1111 66.155 0.395211 -0.854634 0.336762
33.6132 -32.4183 51.9122 0.518013 -0.854638 0.0354461
33.9553 -31.9989 45.5527 0.508364 -0.854635 -0.105664
30.2612 -32.5446 38.2157 0.449661 -0.854648 -0.259579
16.8246 -32.76 27.9783 0.162733 -0.854643 -0.493054
13.283 -32.5351 26.8128 0.07071 -0.854629 -0.514401
10.4445 -31.9334 25.5922 0 -0.854645 -0.519213
1.37652 -31.9334 27.1612 -0.184964 -0.854643 -0.485154
-10.7594 -33.7806 45.4094 -0.471408 -0.876458 -0.097962
-11.7535 -33.4904 51.533 -0.480355 -0.876457 0.0328884
-8.42777 -33.5116 61.6544 -0.405573 -0.876465 0.259462
-6.4589 -33.5727 64.1428 -0.366444 -0.876457 0.312316
-4.15278 -33.6689 66.2298 -0.320551 -0.876467 0.359238
0.368358 -32.9033 70.8235 -0.211707 -0.876465 0.432422
4.42535 -33.0469 71.991 -0.108648 -0.876467 0.469043
17.0585 -33.2944 71.0796 0.150905 -0.876459 0.457218
23.8953 -33.1563 67.6604 0.303821 -0.876468 0.373494
25.8763 -33.5921 64.7465 0.351899 -0.876457 0.32862
28.809 -33.1535 62.2695 0.405567 -0.876468 0.25946
30.5647 -33.2052 58.7609 0.445834 -0.876472 0.18174
31.6604 -33.1415 55.9395 0.466447 -0.876465 0.119315
31.5325 -33.6405 49.9347 0.481343 -0.876464 -0.0109478
31.1637 -33.6909 46.6534 0.475376 -0.876462 -0.0763691
29.9156 -33.6703 42.0373 0.445841 -0.876467 -0.181744
27.4556 -32.8731 35.2094 0.366464 -0.876474 -0.312246
22.8651 -32.9042 31.1646 0.268628 -0.876461 -0.399568
7.39789 -32.9703 27.4677 -0.0655605 -0.876466 -0.476979
4.08966 -33.105 28.3587 -0.129867 -0.876476 -0.4636
0.708256 -33.2793 29.9201 -0.191797 -0.876471 -0.441602
0.674138 -34.3795 67.8421 -0.212594 -0.896673 0.388306
3.85212 -34.5276 68.8572 -0.138705 -0.89667 0.420409
11.0375 -34.3164 70.2394 0.0201924 -0.896665 0.44225
30.3339 -34.136 53.1088 0.437104 -0.896666 0.0702215
24.8356 -34.1649 35.9255 0.323557 -0.896667 -0.302157
21.8435 -34.6112 34.4611 0.263459 -0.896668 -0.355774
19.6015 -34.0487 31.6918 0.2126 -0.896673 -0.388303
15.2711 -34.1404 30.2106 0.119457 -0.896663 -0.426294
10.5374 -34.2011 29.6512 0.0201295 -0.896665 -0.442253
-2.56228 -34.1187 33.7527 -0.263486 -0.896667 -0.355758
-7.43786 -35.4598 47.12 -0.398007 -0.915148 -0.0639835
-9.07386 -34.7285 53.3096 -0.398009 -0.915147 0.0639907
-6.57774 -35.2722 57.3748 -0.365997 -0.915149 0.168962
-3.51752 -35.0976 62.7156 -0.294602 -0.915153 0.275145
-1.26253 -35.0863 64.7955 -0.239892 -0.915144 0.323979
15.4091 -34.8949 68.2571 0.108789 -0.915149 0.38816
17.6173 -35.4067 66.1706 0.177283 -0.915148 0.362043
21.0751 -34.7408 65.9062 0.22491 -0.915146 0.334549
23.0466 -35.0228 63.4402 0.281784 -0.915154 0.288257
27.2676 -34.6994 58.944 0.35791 -0.915151 0.185472
28.1235 -34.8969 55.6578 0.385573 -0.915152 0.1176
28.4561 -35.1167 50.6844 0.403014 -0.915148 0.00918729
27.7761 -35.3548 47.7509 0.400508 -0.915149 -0.0457806
25.0334 -35.3478 40.2817 0.339574 -0.915151 -0.217229
7.039 -34.7949 31.1049 -0.0548933 -0.915145 -0.39937
3.59844 -34.6989 31.7431 -0.126301 -0.915148 -0.382822
-0.0983235 -35.4452 35.5117 -0.22493 -0.915144 -0.334543
-7.13804 -35.6685 50.9669 -0.361972 -0.931861 0.0247473
-6.06168 -35.8996 54.1285 -0.351486 -0.931863 0.0899435
-4.37371 -35.5851 59.8374 -0.296408 -0.931866 0.209208
2.90237 -35.604 65.8796 -0.14454 -0.931867 0.332764
7.66839 -35.5767 67.3119 -0.0494016 -0.931867 0.35942
12.5097 -35.6157 67.1865 0.0494016 -0.931867 0.35942
19.6384 -36.1006 62.9078 0.215898 -0.931864 0.291577
25.9082 -35.7417 44.1541 0.341857 -0.931863 -0.121512
20.7967 -36.0451 38.0056 0.241525 -0.931865 -0.270729
16.4384 -35.6745 34.1801 0.129248 -0.931867 -0.338998
13.1536 -35.6077 33.0473 0.0657363 -0.931867 -0.356794
9.81221 -35.8364 33.3452 0 -0.931862 -0.362814
-2.69276 -36.6522 57.0317 -0.278658 -0.94682 0.160879
-0.914325 -36.6523 59.5765 -0.24489 -0.946825 0.20869
1.24288 -36.4394 62.3754 -0.191476 -0.946819 0.258593
9.95927 -36.5802 64.7572 0 -0.946822 0.321758
14.5195 -36.359 64.7301 0.100772 -0.946826 0.305558
23.4727 -36.2873 57.8295 0.278662 -0.946818 0.16088
24.0746 -36.5663 54.4009 0.307765 -0.946825 0.0938269
24.56 -36.5912 48.4374 0.319661 -0.946827 -0.0365535
23.2289 -36.7822 45.223 0.303179 -0.946827 -0.107706
21.6912 -36.6552 41.5562 0.262872 -0.946827 -0.185518
12.6175 -36.841 36.4057 0.058299 -0.946828 -0.316414
7.04039 -36.7592 36.2278 -0.0725954 -0.946828 -0.313443
3.92293 -36.7404 37.2251 -0.141527 -0.946822 -0.288962
-0.497401 -36.2873 38.6065 -0.214189 -0.946825 -0.240095
-3.61729 -36.8968 48.2437 -0.278305 -0.959965 -0.0318268
2.13546 -37.3633 59.3233 -0.17678 -0.959964 0.217296
14.6105 -37.3799 61.2434 0.111664 -0.959965 0.256901
17.7142 -37.0888 60.6367 0.166724 -0.959968 0.225088
19.8812 -37.1715 58.207 0.213201 -0.959963 0.181703
18.2928 -37.1698 40.3169 0.176778 -0.959966 -0.21729
15.5662 -37.0881 38.2332 0.123204 -0.95997 -0.251552
-9.60569 -32.0767 35.806 -0.4242 -0.854632 -0.299429
-6.87459 -34.4747 39.5774 -0.372921 -0.896668 -0.238573
-2.41585 -36.9719 44.8219 -0.259389 -0.959967 -0.105742
-4.57592 -35.9291 42.3611 -0.322126 -0.931863 -0.166931
-9.54856 -30.5701 32.1384 -0.432539 -0.806062 -0.403948
-9.64156 -28.7136 28.7775 -0.417085 -0.779441 -0.467452
-1.70918 -37.4339 52.1694 -0.234908 -0.971283 0.0377732
0.0947758 -37.6536 54.8531 -0.216025 -0.97128 0.099743
6.848 -37.5541 61.0324 -0.0641783 -0.971281 0.229119
19.8191 -37.7141 54.4523 0.216031 -0.971282 0.099706
20.3835 -37.7872 51.2695 0.236387 -0.971282 0.0270511
19.6901 -37.7118 45.3926 0.216033 -0.971282 -0.0997044
12.9445 -37.726 39.785 0.0641527 -0.971281 -0.229124
9.915 -37.4945 38.4272 0 -0.971281 -0.237937
6.91488 -37.6004 39.2922 -0.0641775 -0.971281 -0.229116
3.88869 -37.6043 40.6888 -0.132749 -0.971282 -0.197457
0.923336 -38.0821 50.4581 -0.195265 -0.980741 0.00444225
10.0904 -37.9857 59.6414 0 -0.980742 0.195308
12.7735 -38.2807 57.6706 0.0695404 -0.980741 0.182514
18.8461 -38.1026 48.5155 0.192843 -0.980741 -0.030971
16.7502 -38.1437 44.4666 0.148673 -0.980741 -0.126667
3.41868 -38.4534 47.711 -0.143486 -0.988338 -0.050977
3.24756 -38.4191 52.6205 -0.143485 -0.988339 0.0509782
5.60125 -38.5463 54.7086 -0.106431 -0.988339 0.108895
7.70951 -38.3787 57.1923 -0.047756 -0.988339 0.144588
14.9973 -38.4217 55.2556 0.106424 -0.98834 0.108898
17.167 -38.3641 52.5225 0.14348 -0.988338 0.0510019
12.6784 -38.3821 43.1154 0.0542139 -0.988338 -0.142302
9.34624 -38.3557 42.4748 -0.0138404 -0.988338 -0.151647
5.08733 -38.4273 44.86 -0.10643 -0.988339 -0.108896
-5.75832 -33.7679 35.7442 -0.351899 -0.876456 -0.328621
-6.83166 -30.2404 28.9893 -0.373441 -0.806074 -0.459115
9.41939 -38.7807 54.4422 -0.0148578 -0.994046 0.107947
14.2684 -38.7895 49.3645 0.107586 -0.994046 -0.017288
10.8305 -38.7586 45.541 0.0197256 -0.994046 -0.107164
-0.761293 -37.6309 47.3965 -0.230528 -0.971279 -0.0589442
-9.92911 -32.9736 39.1053 -0.416984 -0.876455 -0.240731
-12.0909 -28.6334 31.1826 -0.476799 -0.779464 -0.406322
-1.30204 -36.8128 41.8104 -0.262859 -0.946826 -0.185542
-3.57796 -35.4592 38.738 -0.306841 -0.915148 -0.261444
-4.62916 -32.292 31.1785 -0.308991 -0.854644 -0.417264
-4.19444 -29.3657 25.7515 -0.324245 -0.781396 -0.533184
-8.32207 -34.5393 42.726 -0.409965 -0.896667 -0.167083
-12.3399 -30.1775 34.7928 -0.483471 -0.806083 -0.341302
6.67539 -38.862 50.9255 -0.0634463 -0.997853 0.0162456
11.9105 -38.9066 52.0567 0.045773 -0.997853 0.0468402
7.59126 -38.8479 47.3338 -0.043589 -0.997853 -0.0488787
54.9232 52.0261 29.3748 0.999197 0.0162331 0.0366304
33.0869 64.1614 48.6442 0.076634 0.306344 0.948831
33.8076 68.634 46.5394 0.123174 0.548966 0.826719
44.8979 71.7301 32.0829 0.598283 0.794465 0.104314
42.9169 73.35 28.6778 0.5349 0.844462 0.027673
41.4891 73.7123 33.2667 0.444614 0.882153 0.155319
45.0439 71.9461 26.0497 0.604715 0.796441 0.000769905
45.9862 71.125 29.3161 0.651944 0.756518 0.0514841
32.2059 72.715 43.0358 0.0981211 0.79254 0.601874
36.9919 74.1817 38.5167 0.293032 0.888324 0.353571
34.8975 75.4287 36.3631 0.212229 0.945573 0.246679
30.8214 76.6842 32.2191 0.0274904 0.992873 0.115962
34.1645 76.2503 32.9725 0.169091 0.973289 0.155297
37.9791 74.8751 35.1449 0.306962 0.930673 0.199053
33.6531 76.6714 29.1146 0.122648 0.991117 0.0514273
41.655 69.9645 42.2101 0.451173 0.712308 0.537643
39.1557 72.528 40.3581 0.369383 0.832789 0.412333
30.2495 76.1133 35.6322 0.0129453 0.976172 0.216613
37.0064 68.8055 45.7207 0.254092 0.572819 0.779305
35.762 65.6605 47.7685 0.176744 0.398402 0.900021
40.5919 74.6284 26.7806 0.425245 0.905078 0.00021614
40.3782 74.5912 30.4789 0.404171 0.91108 0.0811135
51.8136 52.5252 41.5641 0.854695 0.00946262 0.519044
49.8661 54.5605 44.0062 0.741073 0.0917866 0.665122
43.8516 66.8931 43.6621 0.514817 0.540899 0.665126
42.1669 71.7695 38.6308 0.500597 0.790183 0.353572
40.5488 73.5368 36.1802 0.436094 0.865419 0.246721
36.5763 75.9221 31.0714 0.265511 0.960693 0.0810756
50.6639 58.9487 41.603 0.800739 0.2642 0.537601
47.2524 65.1888 41.7363 0.664941 0.518485 0.537612
48.5168 61.9577 42.7838 0.694635 0.393848 0.601969
49.5787 63.7564 39.5745 0.76961 0.487473 0.412397
53.0083 56.5541 37.9948 0.940402 0.163322 0.298279
46.3128 69.2869 36.9752 0.658008 0.691393 0.29833
51.6879 60.5809 38.3398 0.872799 0.336416 0.35362
