ply
format ascii 1.0
comment Created by Open3D
element vertex 800
property double x
property double y
property double z
property double nx
property double ny
property double nz
property uchar red
property uchar green
property uchar blue
end_header
-73.0027 16.3688 805.823 0.251671 -0.671666 -0.696177 0 0 0
-70.7601 16.5095 806.461 0.269328 -0.575967 -0.769846 0 0 0
-68.936 18.0455 806.167 0.42098 -0.39642 -0.813036 0 0 0
-66.6965 22.9617 805.851 0.431124 -0.171803 -0.885755 0 0 0
-66.048 25.7513 805.492 0.398911 -0.206638 -0.89318 0 0 0
-97.3004 57.4711 808.363 -0.0888807 0.348266 -0.933172 0 0 0
-95.0996 57.2145 808.047 -0.093154 0.345783 -0.933662 0 0 0
-93.5588 55.8535 807.428 -0.0483296 0.306677 -0.950554 0 0 0
-92.459 57.82 807.944 -0.0990724 0.312625 -0.944592 0 0 0
-90.4295 55.8306 807.264 -0.0148644 0.307887 -0.951035 0 0 0
-90.3449 57.9101 808.023 0.0495865 0.379428 -0.922563 0 0 0
-88.036 55.5557 807.147 0.00293865 0.365792 -0.930383 0 0 0
-87.4526 57.5126 807.982 0.0193144 0.415463 -0.909269 0 0 0
-84.316 58.3587 808.445 0.0368183 0.418814 -0.906907 0 0 0
-80.4269 57.0691 808.206 0.0802019 0.387234 -0.918355 0 0 0
-100.128 58.5782 809.095 -0.122288 0.35252 -0.927691 0 0 0
-126.428 58.4466 811.205 0.129902 0.64602 -0.752178 0 0 0
-121.504 55.7394 809.681 0.097498 0.619727 -0.778217 0 0 0
-119.404 56.598 810.576 -0.017244 0.651675 -0.756838 0 0 0
-116.98 56.6897 810.432 -0.0923143 0.567995 -0.817708 0 0 0
-115.316 57.7943 811.036 -0.10872 0.562317 -0.819532 0 0 0
-112.762 57.632 810.581 -0.0994525 0.5331 -0.840042 0 0 0
-127.539 60.3257 812.722 0.0499184 0.664415 -0.745663 0 0 0
-97.2231 69.9244 815.033 -0.0394821 0.585631 -0.809413 0 0 0
-93.9037 72.2746 816.584 0.0114367 0.567859 -0.822975 0 0 0
-90.1917 73.1888 817.343 0.0199605 0.577888 -0.81587 0 0 0
-92.1817 74.2723 818.057 0.0274307 0.595198 -0.80305 0 0 0
-85.8971 73.8701 817.982 0.0349279 0.59968 -0.799467 0 0 0
-82.8072 74.1389 818.356 0.0420244 0.608644 -0.792327 0 0 0
-82.5837 72.429 817.057 0.0409145 0.603594 -0.796232 0 0 0
-80.6153 71.579 816.521 0.043398 0.597505 -0.80068 0 0 0
-77.6346 72.0855 817.089 0.0503049 0.599336 -0.798906 0 0 0
-78.9785 73.4093 818.011 0.0465001 0.604609 -0.795161 0 0 0
-87.2919 75.6238 819.25 0.0292997 0.607588 -0.793678 0 0 0
-112.531 76.9197 823.227 -0.253391 0.456599 -0.851792 0 0 0
-142.105 64.2306 819.84 -0.0401989 0.886108 -0.461556 0 0 0
-77.6182 78.4727 822.341 0.120649 0.655444 -0.745415 0 0 0
-76.8766 80.1614 823.983 0.143905 0.65794 -0.738988 0 0 0
-74.8387 80.6273 824.824 0.161283 0.667595 -0.726735 0 0 0
-72.0618 78.8854 823.779 0.146108 0.698256 -0.700615 0 0 0
-68.0959 77.1972 822.702 0.0979188 0.711736 -0.695383 0 0 0
-66.5633 78.5447 824.381 0.0582882 0.762337 -0.643103 0 0 0
-64.7966 77.7202 823.446 0.0231553 0.712135 -0.700384 0 0 0
-131.458 76.0159 825.642 -0.213949 0.643248 -0.735081 0 0 0
-133.774 75.856 826.21 -0.217427 0.643979 -0.729795 0 0 0
-129.23 76.2575 825.2 -0.218583 0.613897 -0.758466 0 0 0
-126.402 77.5572 825.424 -0.208972 0.552729 -0.806635 0 0 0
-123.228 78.0845 824.989 -0.182514 0.489318 -0.852647 0 0 0
-121.375 77.3949 824.25 -0.129385 0.477255 -0.868781 0 0 0
-121.002 79.3114 825.19 -0.157187 0.429896 -0.88864 0 0 0
-118.682 79.9149 825.105 -0.100406 0.383358 -0.91776 0 0 0
-117.007 78.6648 824.525 -0.0585959 0.352997 -0.933148 0 0 0
-114.7 80.262 824.831 -0.133056 0.304857 -0.942988 0 0 0
-116.652 81.1383 825.347 -0.102269 0.315681 -0.943265 0 0 0
-114.196 82.143 825.376 -0.119795 0.308427 -0.943655 0 0 0
-124.093 84.4479 828.675 -0.388839 0.413405 -0.823001 0 0 0
-123.202 82.6316 827.38 -0.331534 0.414475 -0.847117 0 0 0
-121.649 85.2386 827.875 -0.384906 0.338277 -0.858627 0 0 0
-123.138 86.6659 829.216 -0.422802 0.341825 -0.839087 0 0 0
-121.851 88.5795 829.401 -0.375916 0.353983 -0.855647 0 0 0
-119.228 88.3299 828.162 -0.243028 0.459995 -0.853426 0 0 0
-116.626 90.0585 828.768 -0.130528 0.501342 -0.855175 0 0 0
-113.251 91.0126 828.9 -0.0735514 0.476291 -0.875655 0 0 0
-111.304 89.7513 827.844 -0.198657 0.38746 -0.898786 0 0 0
-110.004 91.4346 828.148 -0.337935 0.305206 -0.885944 0 0 0
-108.196 92.1163 827.676 -0.218844 0.115517 -0.967783 0 0 0
-45.248 48.6118 824.251 0.959279 0.0334695 -0.279422 0 0 0
-44.3143 48.917 827.987 0.960793 0.0813212 -0.262725 0 0 0
-43.5327 49.4551 831.159 0.960845 0.108007 -0.254839 0 0 0
-69.4055 82.5731 828.655 0.121458 0.698516 -0.70498 0 0 0
-68.2063 81.3476 827.525 0.129394 0.751867 -0.643715 0 0 0
-66.0326 80.29 826.62 0.131024 0.75785 -0.637911 0 0 0
-65.7813 82.259 829.425 0.219934 0.782678 -0.580945 0 0 0
-63.4381 79.6062 826.074 0.093463 0.805778 -0.57947 0 0 0
-64.1137 80.9272 827.906 0.163689 0.797575 -0.573101 0 0 0
-90.0766 109.988 833.438 0.241768 0.377537 -0.893146 0 0 0
-92.1353 110.364 833.075 0.189652 0.320713 -0.927849 0 0 0
-54.8443 95.3746 832.238 -0.515622 -0.531342 -0.671461 0 0 0
-56.9288 97.5929 832.915 -0.648125 -0.0649873 -0.744877 0 0 0
-55.6253 98.3547 831.211 -0.789786 -0.148639 -0.594177 0 0 0
-77.8221 91.8537 832.298 0.297688 0.334546 -0.892209 0 0 0
-144.263 75.8244 836.173 -0.606471 0.261035 -0.750913 0 0 0
-142.864 79.2718 836.553 -0.666287 0.361177 -0.652203 0 0 0
-138.289 86.0143 836.43 -0.352336 0.630519 -0.689748 0 0 0
-116.559 116.8 838.97 -0.233028 0.869091 -0.427711 0 0 0
-108.579 116.383 837.663 0.0709748 0.765837 -0.638739 0 0 0
-104.008 114.796 836.285 0.00449329 0.697152 -0.71675 0 0 0
-101.239 114.818 836.296 -0.0100323 0.692317 -0.721054 0 0 0
-114.523 118.616 841.33 -0.213222 0.833032 -0.50998 0 0 0
-109.11 119.242 841.238 0.102899 0.789215 -0.604316 0 0 0
-98.9487 119.038 841.105 -0.000398352 0.771941 -0.635654 0 0 0
-65.1482 101.271 840.293 0.573586 0.725756 -0.37228 0 0 0
-122.712 120.595 849.436 -0.380796 0.732472 -0.562791 0 0 0
-118.161 121.945 848.497 -0.285866 0.791845 -0.539137 0 0 0
-114.74 124.921 851.362 -0.176245 0.781328 -0.598616 0 0 0
-107.462 125.334 850.052 -0.237412 0.680726 -0.692746 0 0 0
-106.116 127.142 851.298 -0.324703 0.619362 -0.709909 0 0 0
-88.8637 132.668 850.78 0.718932 -0.37933 -0.569452 0 0 0
-145.325 101.129 852.506 -0.513249 0.409869 -0.752644 0 0 0
-146.631 102.412 854.1 -0.425962 0.506333 -0.747925 0 0 0
-138.399 114.83 853.05 -0.564925 0.551652 -0.613552 0 0 0
-168.496 -18.6764 778.57 0.029313 -0.619738 -0.784119 0 0 0
-171.144 -18.3241 778.057 0.0583867 -0.614183 -0.786678 0 0 0
-168.923 -15.4237 778.455 -0.0521166 0.411926 -0.906241 0 0 0
-166.46 -15.2623 778.363 -0.0299803 0.619348 -0.773472 0 0 0
-165.563 -17.9257 778.62 0.466066 -0.63525 -0.602667 0 0 0
-169.517 -13.3484 779.341 -0.0993554 0.408283 -0.906286 0 0 0
-199.055 -14.3388 780.179 -0.3241 -0.369008 -0.870554 0 0 0
-197.117 -15.435 780.03 -0.27388 -0.336195 -0.900791 0 0 0
-200.393 -12.4241 779.784 -0.421424 -0.451833 -0.784543 0 0 0
-198.28 -11.3683 778.905 0.0469737 0.0613462 -0.984111 0 0 0
-201.085 -10.581 778.443 -0.748539 0.363049 -0.402877 0 0 0
-199.414 -8.51399 780.021 -0.0238491 0.508604 -0.860398 0 0 0
-191.614 -19.6496 779.939 -0.357069 -0.456599 -0.813974 0 0 0
-189.874 1.25625 783.923 -0.226179 0.524533 -0.814199 0 0 0
-158.496 -32.7601 788.647 0.0765898 0.147924 -0.985881 0 0 0
-154.517 -35.7311 788.314 0.0121457 -0.0114208 -0.99823 0 0 0
-152.455 -37.7424 788.63 0.0464693 -0.230918 -0.967911 0 0 0
-151.468 -35.4796 788.097 -0.111921 0.0189718 -0.991554 0 0 0
-149.857 -36.6119 787.878 -0.135894 -0.517938 -0.823337 0 0 0
-154.832 -33.405 788.712 -0.0250559 0.246786 -0.966916 0 0 0
-152.338 -33.4529 788.516 -0.0893495 0.217846 -0.971393 0 0 0
-159.089 -30.6437 788.941 0.162141 0.253978 -0.94909 0 0 0
-147.738 -37.4331 788.56 0.210029 -0.600974 -0.76621 0 0 0
-145.828 -36.0042 788.481 0.434028 -0.182764 -0.873763 0 0 0
-144.028 -36.3504 789.331 0.298194 -0.0484314 -0.91403 0 0 0
-139.861 -36.1263 787.711 0.238928 0.0232665 -0.439681 0 0 0
-155.133 -31.2408 789.428 -0.0549174 0.345166 -0.935573 0 0 0
-152.857 -31.0307 789.167 -0.115714 0.168606 -0.977741 0 0 0
-151.362 -29.1562 789.153 -0.051854 0.0129616 -0.995616 0 0 0
-154.489 -27.2139 789.355 -0.0821049 -0.37305 -0.921883 0 0 0
-151.867 -27.0785 789.007 -0.0184489 -0.156965 -0.986065 0 0 0
-146.499 -39.4733 789.969 0.170021 -0.492231 -0.852398 0 0 0
-144.8 -38.2838 789.906 0.302405 -0.48807 -0.817825 0 0 0
-148.957 -32.5737 788.554 0.0805704 0.300799 -0.947877 0 0 0
-145.614 -33.7779 789.144 0.485799 0.235501 -0.839479 0 0 0
-145.84 18.4632 791.918 0.037954 -0.314819 -0.948386 0 0 0
-143.831 21.2419 791.035 -0.0731695 -0.417348 -0.900883 0 0 0
-138.984 19.1136 792.271 0.115856 -0.337126 -0.934123 0 0 0
-134.769 18.0486 793.417 0.24386 -0.157147 -0.956241 0 0 0
-136.787 19.0689 792.702 0.226532 -0.188013 -0.954894 0 0 0
-132.331 20.9226 793.942 0.301895 0.0176364 -0.952503 0 0 0
-131.061 18.9497 794.58 0.305238 -0.140776 -0.941313 0 0 0
-153.559 24.9422 792.2 -0.0315487 0.382414 -0.923216 0 0 0
-154.834 26.5822 793.044 -0.082442 0.418425 -0.904241 0 0 0
-150.938 26.6647 792.823 -0.067659 0.406374 -0.911027 0 0 0
-152.635 -12.4919 792.432 0.286421 0.46842 -0.834586 0 0 0
-160.677 -6.5242 793.748 0.0429009 0.636357 -0.765787 0 0 0
-156.972 -5.58906 794.812 0.106078 0.476432 -0.872718 0 0 0
-142.197 -14.3153 792.884 0.312304 0.619207 -0.719788 0 0 0
-137.856 -13.8349 794.551 0.022654 0.637949 -0.76875 0 0 0
-136.37 -21.9268 793.636 0.527356 -0.123943 -0.83452 0 0 0
-136.679 -24.3304 793.643 0.623392 -0.156647 -0.764359 0 0 0
-133.731 -17.0121 794.357 0.2705 0.305193 -0.911469 0 0 0
-146.807 -12.4721 793.385 0.101917 0.559125 -0.822319 0 0 0
-143.528 -12.8771 793.862 0.210998 0.703466 -0.676731 0 0 0
-146.48 -9.66546 795.56 0.314922 0.552536 -0.771167 0 0 0
-143.635 -9.15735 797.234 0.307639 0.598022 -0.739953 0 0 0
-148.189 -8.22962 795.812 0.32863 0.470425 -0.818138 0 0 0
-137.416 -7.83018 798.045 -0.196737 0.136117 -0.970449 0 0 0
-148.154 -5.82288 797.018 0.413177 0.333726 -0.846298 0 0 0
-143.143 -2.34998 799.259 0.0569972 -0.559482 -0.825151 0 0 0
-134.472 -10.4065 798.099 0.402123 0.254058 -0.873526 0 0 0
-136.636 -10.2105 797.553 -0.154153 0.19591 -0.962485 0 0 0
-133.838 -8.43213 798.753 0.519203 0.00810719 -0.852199 0 0 0
-166.919 14.0095 800.039 -0.628691 -0.261324 -0.731258 0 0 0
-166.518 11.6558 800.443 -0.559993 -0.211359 -0.800342 0 0 0
-164.287 11.412 799.085 -0.478471 -0.29736 -0.825379 0 0 0
-165.259 13.4807 798.935 -0.575658 -0.312261 -0.754797 0 0 0
-169.606 17.834 801.083 -0.69449 -0.283416 -0.661073 0 0 0
-100.588 4.46012 803.366 0.23566 -0.447153 -0.862687 0 0 0
-98.5877 5.83468 803.482 0.284703 -0.35097 -0.892005 0 0 0
-95.3433 7.6253 803.843 0.22968 -0.27193 -0.934154 0 0 0
-64.8676 22.6434 806.946 0.46993 -0.243705 -0.848325 0 0 0
-61.0133 27.8448 806.86 0.347422 -0.355268 -0.865112 0 0 0
-59.7903 29.1258 805.947 0.593137 0.375832 -0.682805 0 0 0
-61.944 32.3776 806.664 0.54774 0.202213 -0.800732 0 0 0
-69.5536 40.0591 805.26 0.399065 0.414192 -0.817939 0 0 0
-66.9969 37.6418 805.289 0.342228 0.340114 -0.87567 0 0 0
-73.0955 43.9399 805.371 0.370561 0.273228 -0.885214 0 0 0
-71.4414 44.8545 806.424 0.384118 0.066844 -0.911723 0 0 0
-70.9968 41.8422 805.504 0.389713 0.417976 -0.820187 0 0 0
-64.1544 36.7687 805.727 0.349815 0.450822 -0.819107 0 0 0
-109.197 48.1291 805.81 -0.0193699 0.367303 -0.929724 0 0 0
-111.148 51.1557 807.088 -0.0200083 0.409359 -0.912122 0 0 0
-109.246 50.5075 806.749 -0.0400394 0.379038 -0.924473 0 0 0
-106.667 51.703 807.114 -0.0480566 0.37837 -0.924349 0 0 0
-106.995 48.48 805.836 -0.0549646 0.374514 -0.925529 0 0 0
-105.387 50.1881 806.453 -0.0394927 0.374778 -0.926245 0 0 0
-102.064 51.3012 806.701 -0.118656 0.342796 -0.931834 0 0 0
-109.078 52.4872 807.577 -0.0535178 0.39257 -0.918095 0 0 0
-106.58 54.1852 808.115 -0.0700412 0.390931 -0.917712 0 0 0
-108.559 54.9158 808.602 -0.0691858 0.400058 -0.913846 0 0 0
-100.058 54.0793 807.424 -0.111343 0.345164 -0.931913 0 0 0
-175.582 4.55836 807.697 -0.564653 0.656464 -0.494647 0 0 0
-107.699 61.543 812.6 -0.215802 0.542761 -0.807072 0 0 0
-103.6 59.9281 810.244 -0.214844 0.419957 -0.881221 0 0 0
-103.601 61.8169 811.165 -0.266442 0.40677 -0.872983 0 0 0
-105.676 62.8319 812.385 -0.315996 0.36945 -0.873154 0 0 0
-103.197 63.9158 811.953 -0.262923 0.378389 -0.887348 0 0 0
-102.538 65.9415 812.768 -0.198861 0.500629 -0.841611 0 0 0
-95.3695 63.4825 810.333 0.0744457 0.353191 -0.932313 0 0 0
-93.192 63.1563 810.492 0.10144 0.458703 -0.88244 0 0 0
-90.5742 62.3808 810.318 0.0562642 0.473797 -0.878564 0 0 0
-91.6736 64.7792 811.579 0.0836216 0.501607 -0.860724 0 0 0
-89.6289 64.7685 811.769 0.0594035 0.514003 -0.85557 0 0 0
-100.298 65.0415 811.593 -0.264816 0.469959 -0.840558 0 0 0
-65.6027 67.8761 814.319 0.12394 0.746156 -0.650699 0 0 0
-56.111 62.0728 814.716 0.466875 0.422446 -0.776246 0 0 0
-57.8544 63.7861 814.516 0.501945 0.364195 -0.782515 0 0 0
-61.2373 66.3098 813.841 0.179441 0.677912 -0.712369 0 0 0
-59.4757 65.2954 813.99 0.502033 0.34842 -0.7859 0 0 0
-63.0432 68.0033 815.258 0.209383 0.724095 -0.656489 0 0 0
-115.189 70.9696 819.538 -0.175791 0.601643 -0.778988 0 0 0
-113.171 70.4052 818.589 -0.197179 0.60587 -0.770563 0 0 0
-113.282 72.2413 820.126 -0.174429 0.633749 -0.753109 0 0 0
-109.454 72.9602 819.555 -0.240608 0.596457 -0.765597 0 0 0
-106.6 72.8418 818.621 -0.215343 0.566924 -0.795087 0 0 0
-104.332 74.0681 818.8 -0.244473 0.524141 -0.815571 0 0 0
-102.107 75.428 819.057 -0.182393 0.637619 -0.74576 0 0 0
-99.1184 75.3138 818.389 -0.133946 0.428636 -0.889679 0 0 0
-96.7232 75.6246 818.475 0.124918 0.508892 -0.849596 0 0 0
-45.4463 64.7783 822.994 0.683303 0.354867 -0.638051 0 0 0
-56.3552 77.1046 822.815 -0.0032672 0.614728 -0.769392 0 0 0
-120.737 83.3839 826.885 -0.250415 0.339297 -0.906135 0 0 0
-119.036 85.5061 827.084 -0.232523 0.247941 -0.940234 0 0 0
-118.642 82.8247 826.214 -0.179893 0.321429 -0.929374 0 0 0
-116.361 86.0076 826.767 -0.110383 0.273862 -0.955182 0 0 0
-114.872 88.8876 827.86 -0.0699917 0.449343 -0.890428 0 0 0
-113.574 84.3633 825.999 -0.0975085 0.301321 -0.948495 0 0 0
-109.242 84.3039 825.448 -0.130493 0.327018 -0.935956 0 0 0
-111.597 85.157 826.078 -0.0992484 0.330381 -0.938434 0 0 0
-111.959 87.3537 826.936 -0.0939742 0.367856 -0.924768 0 0 0
-109.83 88.0403 826.867 -0.170206 0.319758 -0.931775 0 0 0
-108.354 89.6717 827.106 -0.178612 0.283106 -0.942004 0 0 0
-106.164 90.4161 826.961 -0.138778 0.248456 -0.958603 0 0 0
-103.273 90.9806 826.738 -0.134264 0.269277 -0.953261 0 0 0
-106.256 93.0844 827.514 -0.0744162 0.0740934 -0.993821 0 0 0
-75.6945 88.3657 830.894 0.243738 0.578496 -0.778253 0 0 0
-74.1583 86.9942 830.31 0.26148 0.579826 -0.771484 0 0 0
-69.1781 84.2447 830.226 0.299629 0.574865 -0.761086 0 0 0
-52.6785 94.4379 831.187 -0.541387 -0.518043 -0.661989 0 0 0
-119.983 107.6 834.667 -0.316279 0.62364 -0.710375 0 0 0
-116.996 108.834 834.867 -0.122628 0.578473 -0.805521 0 0 0
-113.511 107.045 833.506 -0.0302153 0.462298 -0.875204 0 0 0
-118.28 113.094 836.327 -0.325177 0.057159 -0.943632 0 0 0
-115.818 112.705 835.374 -0.35412 0.0898534 -0.930386 0 0 0
-114.022 113.842 834.738 -0.326797 0.256906 -0.907381 0 0 0
-118.108 115.533 836.793 0.0175218 0.746586 -0.662832 0 0 0
-116.063 115.803 837.255 -0.0522241 0.774629 -0.629437 0 0 0
-113.683 109.273 834.375 -0.183507 0.22252 -0.953463 0 0 0
-110.943 107.169 833.278 -0.021228 0.320687 -0.942524 0 0 0
-107.882 107.975 833.912 0.153761 0.323615 -0.931686 0 0 0
-109.787 108.841 833.796 0.096303 0.307229 -0.946025 0 0 0
-111.487 110.397 834.214 -0.0421743 0.189131 -0.97802 0 0 0
-108.909 111.001 834.586 0.140645 0.218749 -0.965456 0 0 0
-105.76 109.504 834.795 0.17417 0.260298 -0.949623 0 0 0
-104.46 112.379 835.232 -0.0889258 0.223345 -0.970091 0 0 0
-103.682 110.516 834.794 -0.155111 0.209124 -0.965201 0 0 0
-101.434 111.602 834.615 -0.155479 0.308839 -0.933768 0 0 0
-110.118 113.184 834.853 0.175583 0.248742 -0.948603 0 0 0
-106.321 113.377 835.539 0.133009 0.351486 -0.925889 0 0 0
-108.589 114.877 835.983 0.175529 0.559289 -0.801643 0 0 0
-110.592 115.597 836.423 0.0180375 0.797814 -0.602272 0 0 0
-102.65 113.3 835.253 -0.0301521 0.367997 -0.920525 0 0 0
-59.4142 93.8463 836.477 -0.159581 -0.747937 -0.616335 0 0 0
-123.231 108.625 837.252 -0.490961 0.477221 -0.72867 0 0 0
-119.576 115.545 838.778 -0.484815 0.807348 -0.297855 0 0 0
-114.144 117.575 839.477 -0.108619 0.797123 -0.593683 0 0 0
-107.389 118.119 839.954 0.0483368 0.785631 -0.616575 0 0 0
-104.848 116.713 838.357 0.00859537 0.770265 -0.637535 0 0 0
-102.6 116.007 837.574 8.48634e-05 0.742649 -0.66942 0 0 0
-100.631 117.834 839.668 -0.0186841 0.767414 -0.640874 0 0 0
-89.1796 117.208 840.412 0.272692 0.760262 -0.588972 0 0 0
-82.6508 112.912 839.561 0.336521 0.682656 -0.645924 0 0 0
-79.5965 112.962 840.58 0.0707142 0.705584 -0.701343 0 0 0
-77.6006 113.157 840.514 -0.0570806 0.672798 -0.736594 0 0 0
-118.417 117.407 841.752 -0.380239 0.789141 -0.481968 0 0 0
-64.7241 100.013 837.906 0.283817 0.839856 -0.445989 0 0 0
-60.9443 99.9742 837.824 0.037009 0.997972 -0.000118268 0 0 0
-62.1411 99.8162 840.134 0.114986 0.991214 -0.00858033 0 0 0
-133.849 100.205 841.563 -0.592478 0.49188 -0.637755 0 0 0
-131.682 106.496 843.259 -0.621079 0.346961 -0.702188 0 0 0
-127.205 113.715 844.487 -0.465139 0.581707 -0.666936 0 0 0
-125.436 113.175 842.644 -0.496779 0.584832 -0.640464 0 0 0
-124.034 114.534 842.886 -0.477737 0.624254 -0.617915 0 0 0
-61.8783 102.343 846.783 0.730102 -0.52346 -0.436286 0 0 0
-152.541 74.2305 854.215 -0.950281 0.0112229 -0.306222 0 0 0
-144.08 104.786 853.415 -0.645187 0.357326 -0.675114 0 0 0
-139.842 116.063 855.492 -0.59259 0.537923 -0.599239 0 0 0
-124.532 122.831 854.677 -0.537041 0.741542 -0.396885 0 0 0
-175.597 -7.63957 782.899 0.298414 0.354035 -0.883544 0 0 0
-174.41 -5.44972 784.055 0.496371 0.239741 -0.826019 0 0 0
-140.139 23.4523 789.219 0.0344209 -0.39371 -0.906789 0 0 0
-146.034 20.4252 791.322 -0.0304482 -0.331457 -0.941478 0 0 0
-140.728 20.5557 791.486 0.0836244 -0.390873 -0.915757 0 0 0
-141.667 22.2385 790.514 0.002881 -0.439649 -0.896681 0 0 0
-138.683 22.117 791.385 0.404646 -0.129706 -0.894227 0 0 0
-141.838 -29.6467 791.567 0.453816 -0.144086 -0.878643 0 0 0
-140.908 -26.8257 791.725 0.461053 -0.0954531 -0.881792 0 0 0
-156.695 -25.7887 788.574 0.187879 -0.330491 -0.919551 0 0 0
-157.821 -13.9371 789.103 0.220173 0.795864 -0.562743 0 0 0
-151.388 -17.1402 788.95 0.273177 0.521996 -0.804208 0 0 0
-138.69 -15.7268 793.171 0.109211 0.517138 -0.846316 0 0 0
-136.264 -18.0992 793.45 0.367422 0.0636748 -0.927602 0 0 0
-135.94 -14.7997 793.748 0.0532761 0.353478 -0.86274 0 0 0
-144.196 -13.8845 792.275 0.225409 0.808132 -0.52485 0 0 0
-143.434 29.0673 793.727 0.0833327 0.43898 -0.894257 0 0 0
-139.742 29.3859 794.496 0.194345 0.396525 -0.896064 0 0 0
-136.919 27.3633 794.505 0.333983 0.400978 -0.852644 0 0 0
-134.364 25.8303 794.662 0.254579 0.408644 -0.875785 0 0 0
-130.065 23.7369 794.936 0.193346 0.185492 -0.96132 0 0 0
-127.808 22.7588 795.455 0.374801 0.0451865 -0.925177 0 0 0
-136.021 35.1564 794.508 -0.269202 -0.0834826 -0.9513 0 0 0
-144.291 36.5822 795.759 -0.169309 0.123449 -0.97736 0 0 0
-140.467 35.7662 795.251 -0.0515947 0.0945836 -0.994 0 0 0
-137.761 36.2676 795.083 -0.130498 0.214164 -0.965362 0 0 0
-136.323 9.53264 796.145 -0.0630856 0.0413805 -0.994525 0 0 0
-131.911 8.7772 797.176 0.384604 0.0576135 -0.920684 0 0 0
-165.293 24.2488 796.798 -0.626727 0.250161 -0.737565 0 0 0
-163.357 24.7931 795.42 -0.576849 0.273432 -0.768875 0 0 0
-163.299 27.5161 796.351 -0.521628 0.247684 -0.815399 0 0 0
-161.654 28.7996 795.79 -0.426231 0.160103 -0.889057 0 0 0
-162.465 31.5678 796.42 -0.471231 0.00562923 -0.881727 0 0 0
-159.873 30.5226 795.339 -0.277945 0.0638147 -0.956945 0 0 0
-160.689 32.8259 795.587 -0.297818 -0.177182 -0.922187 0 0 0
-148.748 29.8712 794.089 -0.0449247 0.343852 -0.937915 0 0 0
-151.82 30.9751 794.644 -0.0504277 0.326244 -0.943927 0 0 0
-149.194 31.8704 794.833 -0.0398824 0.329696 -0.943187 0 0 0
-155.896 32.7432 795.439 -0.04833 0.295853 -0.953913 0 0 0
-153.835 31.595 794.969 -0.0525132 0.3112 -0.948849 0 0 0
-151.123 33.0817 795.345 -0.0495415 0.320313 -0.946011 0 0 0
-164.284 34.6775 797.541 -0.462848 0.20687 -0.849639 0 0 0
-99.357 22.2058 798.334 0.230295 -0.0133784 -0.972837 0 0 0
-97.2037 21.7295 798.908 0.24443 -0.123237 -0.96006 0 0 0
-92.836 22.0604 799.529 0.100038 -0.0943014 -0.990477 0 0 0
-84.8332 18.3696 799.75 0.243199 0.164443 -0.905876 0 0 0
-123.189 26.1993 797.77 0.360026 0.0339804 -0.931624 0 0 0
-120.767 28.8413 798.201 0.0886517 -0.0436261 -0.993153 0 0 0
-120.284 26.588 798.387 0.0213452 -0.0568672 -0.996087 0 0 0
-119.462 24.0802 798.27 -0.0262315 0.0344215 -0.998985 0 0 0
-117.231 24.2193 798.219 -0.0102477 0.00443475 -0.999719 0 0 0
-115.181 22.9896 798.176 -0.0329982 0.0747775 -0.995839 0 0 0
-118.165 29.0079 798.261 0.0557668 0.127258 -0.990238 0 0 0
-122.501 32.4978 798.351 0.13067 0.173467 -0.97597 0 0 0
-118.35 31.6944 798.649 0.0842991 0.155806 -0.984156 0 0 0
-120.322 32.3027 798.561 0.099789 0.157303 -0.982468 0 0 0
-133.268 -15.0852 795.804 0.445901 0.568113 -0.690451 0 0 0
-106.34 19.7108 798.716 -0.111768 -0.0934338 -0.989007 0 0 0
-99.2196 7.90751 802.511 0.339488 -0.292862 -0.893706 0 0 0
-100.928 12.6856 800.669 0.239924 -0.224107 -0.944355 0 0 0
-98.8164 15.8021 800.354 0.225139 -0.300016 -0.926955 0 0 0
-96.72 16.4936 800.642 0.108345 -0.349089 -0.926497 0 0 0
-94.7963 15.6138 801.225 0.0555411 -0.462647 -0.883447 0 0 0
-90.2826 17.1144 800.984 0.302256 -0.560476 -0.763971 0 0 0
-92.3315 16.7308 800.255 0.291303 -0.718057 -0.628841 0 0 0
-100.019 17.6003 799.432 0.181343 -0.316112 -0.931056 0 0 0
-97.0255 18.5768 799.847 0.194125 -0.348421 -0.916147 0 0 0
-94.6406 17.8453 800.052 -0.0869332 -0.249505 -0.962841 0 0 0
-95.1035 19.9829 799.67 0.0403889 -0.184682 -0.980353 0 0 0
-92.5109 19.2875 799.838 0.0782985 -0.0970609 -0.991882 0 0 0
-101.542 31.9704 799.568 0.060452 0.309384 -0.948634 0 0 0
-120.946 37.3915 799.358 0.0839445 0.139231 -0.986623 0 0 0
-119.948 39.3178 799.671 0.176675 0.163611 -0.970488 0 0 0
-123.572 39.0307 799.587 -0.0134632 0.234023 -0.971343 0 0 0
-121.87 40.1522 799.77 -0.073921 0.311315 -0.943639 0 0 0
-118.72 37.6733 799.61 0.155002 0.171106 -0.972419 0 0 0
-116.675 37.3771 799.93 0.167296 0.237452 -0.956459 0 0 0
-114.946 36.0925 799.837 0.11144 0.218819 -0.969376 0 0 0
-117.478 40.366 800.652 0.220648 0.343673 -0.911479 0 0 0
-115.276 39.6257 800.817 0.120741 0.354731 -0.925567 0 0 0
-113.165 40.001 801.193 0.161884 0.483248 -0.859974 0 0 0
-124.762 44.0144 801.885 0.0710526 0.525191 -0.847972 0 0 0
-118.41 43.1102 801.962 0.163531 0.511452 -0.843486 0 0 0
-166.43 37.923 800.571 -0.439408 0.439316 -0.780691 0 0 0
-145.404 47.7824 803.153 -0.260819 0.554515 -0.789789 0 0 0
-143.047 49.3475 803.378 -0.283707 0.49369 -0.82154 0 0 0
-139.426 48.923 802.498 -0.0430795 0.348664 -0.934498 0 0 0
-141.054 50.0257 803.161 -0.195845 0.386377 -0.898054 0 0 0
-138.92 50.8996 803.021 -0.137183 0.292117 -0.944444 0 0 0
-141.242 52.1523 804.069 -0.298802 0.306571 -0.901896 0 0 0
-141.459 54.4513 804.706 -0.574495 0.260443 -0.766414 0 0 0
-139.505 53.2221 803.819 -0.185693 0.338791 -0.905507 0 0 0
-136.194 49.4405 803.016 0.1747 0.379026 -0.9076 0 0 0
-135.125 47.3979 802.265 0.143571 0.429405 -0.891617 0 0 0
-131.622 47.283 802.781 0.145878 0.446383 -0.882852 0 0 0
-129.704 47.6327 803.288 0.150972 0.456509 -0.876799 0 0 0
-136.655 51.689 803.547 0.325273 0.363831 -0.871254 0 0 0
-135.111 52.8779 804.831 0.247569 0.509943 -0.823459 0 0 0
-63.7359 31.4084 805.479 0.395187 0.0596748 -0.912792 0 0 0
-65.0357 33.6987 805.208 0.43001 0.0546497 -0.899866 0 0 0
-66.0104 35.6577 804.941 0.277197 0.12981 -0.950241 0 0 0
-70.4575 37.9851 803.81 0.413665 0.270646 -0.868736 0 0 0
-74.8144 44.8668 805.122 0.195274 0.284923 -0.93795 0 0 0
-71.7635 47.3737 806.188 0.196156 -0.0342895 -0.973722 0 0 0
-71.6631 40.3211 804.336 0.411262 0.427589 -0.804831 0 0 0
-121.448 48.8824 805.191 0.101595 0.521369 -0.847249 0 0 0
-118.95 49.2612 805.7 0.0903395 0.506561 -0.857428 0 0 0
-129.575 53.4373 806.685 0.176319 0.541608 -0.821779 0 0 0
-125.819 53.8774 807.624 0.155943 0.504892 -0.848718 0 0 0
-125.236 51.724 806.438 0.160993 0.523208 -0.836828 0 0 0
-122.409 51.265 806.621 0.0924577 0.545798 -0.83276 0 0 0
-120.05 50.9995 806.669 0.0766569 0.532662 -0.842794 0 0 0
-120.982 52.6324 807.64 0.0629196 0.527963 -0.846918 0 0 0
-114.628 48.8579 805.872 0.0721995 0.467353 -0.881025 0 0 0
-117.751 51.1187 806.918 0.0612392 0.504412 -0.861255 0 0 0
-123.453 53.0928 807.724 0.20885 0.48563 -0.848581 0 0 0
-110.632 46.3447 805.12 0.0592372 0.383571 -0.921449 0 0 0
-111.418 48.5857 805.978 0.0284653 0.381912 -0.923562 0 0 0
-140.781 57.2009 808.163 -0.195765 0.758894 -0.618215 0 0 0
-136.956 57.8976 809.097 0.0966187 0.807564 -0.580031 0 0 0
-135.226 57.1554 808.496 0.139609 0.775648 -0.613479 0 0 0
-129.157 55.8037 808.482 0.132402 0.620506 -0.772707 0 0 0
-126.748 55.4376 808.562 0.123729 0.616439 -0.777334 0 0 0
-128.369 57.59 810.132 0.122718 0.646424 -0.753034 0 0 0
-146.162 56.8681 809.685 -0.219551 0.52622 -0.821291 0 0 0
-145.225 58.531 810.504 -0.219099 0.529347 -0.819579 0 0 0
-142.055 59.057 810.566 -0.0192514 0.723312 -0.689262 0 0 0
-139.495 58.7598 810.09 0.0233622 0.826022 -0.562579 0 0 0
-77.59 9.73586 808.352 0.296878 -0.300262 -0.906143 0 0 0
-76.2334 12.5205 807.744 0.287501 -0.358183 -0.888011 0 0 0
-124.012 58.8784 812.019 0.138158 0.638065 -0.757032 0 0 0
-122.16 60.2555 813.505 0.148612 0.607716 -0.779935 0 0 0
-125.14 60.4678 813.067 0.136402 0.609377 -0.780887 0 0 0
-119.748 58.367 812.338 0.0734642 0.718888 -0.68709 0 0 0
-116.173 60.5238 812.905 -0.202427 0.467439 -0.858787 0 0 0
-114.023 59.3697 811.855 -0.127543 0.509447 -0.850759 0 0 0
-111.561 60.0113 811.913 -0.0904579 0.508762 -0.855956 0 0 0
-114.13 61.1487 812.862 -0.1313 0.464667 -0.875066 0 0 0
-111.518 62.1918 813.141 -0.0667224 0.467483 -0.881319 0 0 0
-109.803 61.2016 812.53 -0.0386684 0.513011 -0.857384 0 0 0
-108.433 59.7116 811.346 -0.133741 0.57423 -0.807195 0 0 0
-123.452 62.6739 814.974 0.0196612 0.619713 -0.784043 0 0 0
-116.328 64.2268 814.731 -0.27941 0.5993 -0.749953 0 0 0
-108.865 69.0089 816.375 -0.181117 0.574271 -0.798366 0 0 0
-108.26 67.4485 815.114 -0.180231 0.568847 -0.802441 0 0 0
-58.1892 12.0226 817.546 0.587484 -0.632489 -0.503879 0 0 0
-49.5077 20.0096 816.787 0.513226 -0.439153 -0.734217 0 0 0
-45.4907 41.5322 817.017 0.486875 0.769606 -0.407476 0 0 0
-43.2361 40.3153 817.419 0.526581 0.816193 -0.22486 0 0 0
-46.5465 43.0395 817.822 0.737036 0.45742 -0.495981 0 0 0
-103.037 77.1991 820.971 -0.125329 0.632198 -0.762745 0 0 0
-114.362 95.7417 829.351 -0.224577 -0.0662061 -0.971402 0 0 0
-116.252 99.296 829.704 -0.189899 0.0775352 -0.978666 0 0 0
-113.442 100.257 829.344 -0.157494 0.238184 -0.956735 0 0 0
-112.427 95.0637 828.91 -0.276425 -0.148089 -0.945596 0 0 0
-110.156 95.5268 827.755 -0.385059 -0.236874 -0.891719 0 0 0
-111.871 97.2428 828.372 -0.368031 -0.00251957 -0.924779 0 0 0
-106.687 99.1969 828.731 0.184846 0.50707 -0.838107 0 0 0
-102.699 99.6288 829.016 -0.228757 0.566663 -0.786476 0 0 0
-108.822 101.383 829.673 0.224907 0.499315 -0.836384 0 0 0
-95.7032 110.831 832.477 -0.297439 0.330024 -0.890269 0 0 0
-97.7331 110.796 833.27 -0.272606 0.288677 -0.914815 0 0 0
-89.3932 111.745 834.357 0.416757 0.372636 -0.824203 0 0 0
-93.091 112.283 833.626 0.11513 0.44535 -0.884359 0 0 0
-91.322 113.186 834.122 0.00712805 0.402475 -0.875961 0 0 0
-85.7995 107.516 833.548 0.495575 0.477957 -0.722061 0 0 0
-141.983 86.2083 840.888 -0.650791 0.510884 -0.561507 0 0 0
-141.282 85.0507 838.99 -0.692178 0.553134 -0.462488 0 0 0
-141.137 88.1959 841.755 -0.643794 0.512422 -0.568261 0 0 0
-139.451 89.3676 840.842 -0.655515 0.498372 -0.567346 0 0 0
-137.824 90.313 839.655 -0.671209 0.371586 -0.639909 0 0 0
-136.447 91.9299 838.784 -0.653802 0.111787 -0.739119 0 0 0
-134.808 93.5279 837.873 -0.235539 -0.130981 -0.949559 0 0 0
-123.495 112.022 839.757 -0.476312 0.605572 -0.635988 0 0 0
-121.675 115.16 841.434 -0.561028 0.620388 -0.543473 0 0 0
-102.729 118.939 841.114 -0.0201671 0.806463 -0.590291 0 0 0
-90.8754 119.608 842.82 0.171821 0.754306 -0.633385 0 0 0
-87.6162 119.073 843.29 0.286147 0.692165 -0.662292 0 0 0
-84.1486 117.561 843.342 0.346623 0.617226 -0.705306 0 0 0
-85.0515 119.437 844.699 0.278639 0.658087 -0.699356 0 0 0
-64.7847 102.168 842.637 0.634481 0.49645 -0.516914 0 0 0
-62.526 99.698 843.012 0.831101 0.473716 -0.179104 0 0 0
-72.4012 119.852 844.781 -0.249941 0.648707 -0.718274 0 0 0
-149.124 87.7961 849.565 -0.708339 0.354891 -0.609893 0 0 0
-147.989 86.8596 847.766 -0.689656 0.373241 -0.620487 0 0 0
-147.035 88.9932 847.998 -0.669393 0.359588 -0.64994 0 0 0
-146.56 91.1857 848.649 -0.632639 0.360066 -0.685442 0 0 0
-143.328 93.9003 847.871 -0.381833 0.532284 -0.750594 0 0 0
-144.025 96.6382 849.686 -0.481738 0.33798 -0.808309 0 0 0
-143.33 98.6646 850.085 -0.515671 0.328341 -0.791124 0 0 0
-140.839 101.054 849.188 -0.582837 0.249674 -0.773051 0 0 0
-139.157 101.83 848.126 -0.595869 0.25459 -0.761573 0 0 0
-138.65 103.844 848.386 -0.590121 0.240455 -0.770535 0 0 0
-76.4297 123.847 858.601 0.4012 -0.77705 -0.483597 0 0 0
-183.931 -15.0251 779.034 -0.00339878 0.0356682 -0.998765 0 0 0
-186.763 -12.8464 779.173 0.0386424 0.0837333 -0.995607 0 0 0
-182.099 -13.0803 779.334 0.0661655 0.208156 -0.974668 0 0 0
-200.978 -1.15259 785.526 -0.336894 0.532215 -0.776353 0 0 0
-198.665 0.464586 786.143 -0.186846 0.605394 -0.772489 0 0 0
-188.238 2.46489 785.531 0.237269 0.910007 -0.299143 0 0 0
-182.59 0.185767 786.085 0.389341 0.628137 -0.673449 0 0 0
-184.217 1.63929 786.806 0.410111 0.789545 -0.452751 0 0 0
-194.645 2.61821 786.77 -0.172839 0.837784 -0.495982 0 0 0
-190.138 3.13995 787.192 -0.00799227 0.910654 -0.40979 0 0 0
-188.285 3.68525 788.328 0.0503601 0.898821 -0.43103 0 0 0
-148.479 21.5583 791.359 -0.0908842 0.0479571 -0.993609 0 0 0
-146.835 22.8031 790.903 -0.455006 0.151688 -0.873588 0 0 0
-148.748 24.0584 791.649 -0.146016 0.1612 -0.974084 0 0 0
-144.583 24.9785 791.157 -0.0653293 0.595007 -0.799433 0 0 0
-145.766 7.75159 795.407 -0.00266577 -0.270449 -0.96266 0 0 0
-138.276 6.04639 796.066 -0.0384507 -0.108594 -0.991658 0 0 0
-138.289 8.14142 796.076 0.0245558 0.0494377 -0.997617 0 0 0
-135.66 3.03969 796.64 0.0608526 -0.298466 -0.95194 0 0 0
-133.583 2.72002 796.969 0.15134 -0.312897 -0.937379 0 0 0
-147.533 -2.34629 797.748 0.395567 -0.104081 -0.908915 0 0 0
-148.105 0.190381 797.206 0.241147 -0.133552 -0.956545 0 0 0
-144.52 -0.00968742 797.942 0.110676 -0.35071 -0.92926 0 0 0
-147.196 2.2906 796.843 0.0807437 -0.243759 -0.965531 0 0 0
-148.45 4.17939 796.336 0.0206989 -0.214953 -0.975929 0 0 0
-146.506 4.56723 796.263 0.036961 -0.248139 -0.967702 0 0 0
-144.466 2.07977 797.168 0.0809384 -0.323626 -0.94241 0 0 0
-144.201 4.57385 796.388 0.0528109 -0.288117 -0.9561 0 0 0
-142.501 0.223168 797.991 0.0372661 -0.362671 -0.930743 0 0 0
-140.42 1.05013 797.622 -0.049186 -0.329502 -0.942701 0 0 0
-138.708 -0.0296577 797.832 -0.116767 -0.284862 -0.9506 0 0 0
-139.255 -1.91658 798.451 -0.171446 -0.257199 -0.949846 0 0 0
-138.085 2.45154 796.968 -0.0752192 -0.310018 -0.947678 0 0 0
-142.057 3.69657 796.748 0.0121973 -0.307087 -0.95136 0 0 0
-139.581 4.23317 796.52 -0.0387035 -0.268538 -0.962397 0 0 0
-137.248 4.28383 796.326 -0.0666293 -0.252063 -0.965377 0 0 0
-141.129 6.09847 796.096 0.0359646 -0.20697 -0.977025 0 0 0
-143.028 7.50915 795.662 0.107051 -0.224373 -0.968033 0 0 0
-140.956 8.08999 795.792 0.140968 -0.124393 -0.980936 0 0 0
-139.884 10.1428 795.945 0.290673 0.0782885 -0.949266 0 0 0
-135.222 0.122703 797.443 0.0203661 -0.177906 -0.981603 0 0 0
-133.023 0.639746 797.64 0.255995 -0.180134 -0.946031 0 0 0
-130.994 5.15361 797.477 0.431144 0.00825806 -0.902101 0 0 0
-130.565 7.31928 797.735 0.415698 0.0140837 -0.909155 0 0 0
-165.359 26.1482 797.414 -0.595713 0.207362 -0.775418 0 0 0
-163.23 29.7593 796.776 -0.487732 0.0789172 -0.868624 0 0 0
-166.48 33.9303 798.72 -0.512979 -0.03063 -0.857666 0 0 0
-164.746 36.5886 798.854 -0.411355 0.536244 -0.736829 0 0 0
-162.49 37.7077 798.555 -0.338895 0.588754 -0.73277 0 0 0
-102.535 8.4688 800.993 0.332836 -0.163844 -0.922168 0 0 0
-104.5 9.74907 800.473 0.145423 -0.00766576 -0.988738 0 0 0
-122.794 12.1208 799.037 0.157926 -0.283291 -0.945862 0 0 0
-120.623 12.7509 799.172 0.138315 -0.248531 -0.958542 0 0 0
-117.092 12.0939 799.928 0.176133 -0.223463 -0.958362 0 0 0
-118.492 13.4676 799.306 0.164607 -0.239791 -0.956673 0 0 0
-108.758 11.5756 800.04 -0.0402861 -0.143038 -0.988466 0 0 0
-106.525 10.699 800.269 0.0724237 -0.0808929 -0.991042 0 0 0
-102.789 11.0159 800.611 0.123135 -0.142146 -0.981799 0 0 0
-101.19 15.129 800.011 0.180747 -0.236316 -0.9538 0 0 0
-108.976 20.64 798.802 0.0744566 -0.0162127 -0.996874 0 0 0
-119.568 0.066125 801.661 0.38715 -0.384489 -0.833442 0 0 0
-124.112 4.45385 800.147 0.175155 -0.0395253 -0.983625 0 0 0
-118.394 2.88164 801.355 0.222432 -0.222983 -0.94874 0 0 0
-111.863 3.24552 802.226 0.101633 -0.348887 -0.931522 0 0 0
-120.448 10.1676 799.832 0.118292 -0.183902 -0.975632 0 0 0
-115.479 4.63477 801.416 0.0999833 -0.243891 -0.964283 0 0 0
-112.888 5.02263 801.545 0.0803335 -0.266934 -0.959453 0 0 0
-114.574 6.94433 801.029 0.065235 -0.176405 -0.981685 0 0 0
-109.5 4.29038 801.935 0.00989036 -0.397212 -0.917007 0 0 0
-101.313 6.63653 802.141 0.359088 -0.341276 -0.868188 0 0 0
-171.635 1.57943 800.163 -0.139175 0.731291 -0.665054 0 0 0
-169.901 3.44595 801.369 -0.35624 0.508677 -0.776092 0 0 0
-169.26 9.72297 803.137 -0.727203 -0.0350099 -0.683229 0 0 0
-170.352 12.1953 803.951 -0.740465 -0.157118 -0.65308 0 0 0
-169.3 13.647 802.405 -0.702086 -0.188416 -0.686169 0 0 0
-171.288 18.1458 802.918 -0.766916 -0.239841 -0.594439 0 0 0
-124.309 -3.70993 803.254 0.151723 -0.916479 -0.370147 0 0 0
-116.423 -2.03824 804.285 0.281614 -0.682466 -0.670707 0 0 0
-115.716 -3.38936 806.148 0.228566 -0.779765 -0.581947 0 0 0
-112.351 -0.784647 804.143 0.208611 -0.681863 -0.700925 0 0 0
-111.21 1.29349 803.149 0.143902 -0.416489 -0.896913 0 0 0
-146.556 49.0155 804.659 -0.325339 0.637273 -0.697653 0 0 0
-145.64 50.7635 805.659 -0.396313 0.615238 -0.679483 0 0 0
-145.637 52.5435 807.038 -0.529583 0.452727 -0.71359 0 0 0
-143.212 54.7132 806.712 -0.442774 0.613858 -0.651518 0 0 0
-141.086 55.7581 806.51 -0.285165 0.74835 -0.590294 0 0 0
-128.213 49.483 804.554 0.158598 0.483508 -0.860759 0 0 0
-130.11 51.7318 805.467 0.182084 0.515345 -0.837248 0 0 0
-125.358 49.7194 805.162 0.133394 0.504946 -0.852606 0 0 0
-128.025 51.7141 805.901 0.162878 0.513981 -0.842131 0 0 0
-133.421 53.7304 805.921 0.20908 0.554002 -0.805772 0 0 0
-131.474 54.7621 807.168 0.185303 0.578024 -0.794608 0 0 0
-65.1871 38.3775 806.214 0.323185 0.354959 -0.876393 0 0 0
-61.2682 38.6854 807.95 0.395136 0.179776 -0.900764 0 0 0
-155.538 48.7088 806.67 -0.152102 0.704342 -0.693345 0 0 0
-172.264 29.1007 804.093 -0.726629 0.0650806 -0.68384 0 0 0
-171.809 27.1359 803.388 -0.732828 0.0694282 -0.676833 0 0 0
-66.9827 49.3803 807.376 0.412885 0.200039 -0.888239 0 0 0
-65.3516 50.7528 808.363 0.364468 0.165781 -0.916093 0 0 0
-77.2938 58.0684 808.803 0.0278496 0.391412 -0.919559 0 0 0
-74.9764 57.9891 808.892 0.0965431 0.389597 -0.915076 0 0 0
-72.4072 56.411 808.604 0.108225 0.344487 -0.932484 0 0 0
-67.5369 55.0475 808.69 0.224929 0.327237 -0.916785 0 0 0
-64.1489 48.6148 808.52 0.365873 0.131197 -0.921294 0 0 0
-61.23 50.4249 809.925 0.35047 0.135193 -0.926759 0 0 0
-64.5567 52.6352 809.022 0.326873 0.181624 -0.927277 0 0 0
-62.3154 52.8567 809.855 0.323299 0.124727 -0.93798 0 0 0
-76.4267 59.9775 809.703 0.0450065 0.410589 -0.910631 0 0 0
-119.24 -7.52429 810.623 -0.0785731 -0.64379 -0.7582 0 0 0
-117.174 -6.18034 809.613 0.179341 -0.742716 -0.643065 0 0 0
-106.632 -6.16218 810.271 -0.0294262 -0.644305 -0.764043 0 0 0
-104.994 -5.19974 809.439 0.0320604 -0.662012 -0.748605 0 0 0
-79.1657 3.7991 809.313 0.387049 -0.181865 -0.903843 0 0 0
-59.9996 18.1091 811.977 0.520741 -0.361558 -0.773268 0 0 0
-58.5417 22.3289 810.957 0.483707 -0.330988 -0.810212 0 0 0
-51.7138 54.1391 813.918 0.705665 -0.168517 -0.511895 0 0 0
-51.7528 59.4419 814.788 0.554012 0.158509 -0.816972 0 0 0
-61.7925 13.738 812.698 0.709009 -0.327963 -0.621962 0 0 0
-47.4037 29.441 812.666 0.063648 -0.345878 -0.935957 0 0 0
-140.178 62.584 816.148 -0.0800269 0.866078 -0.493163 0 0 0
-127.556 65.1721 817.009 -0.0228421 0.631772 -0.774646 0 0 0
-126.225 63.7523 815.817 -0.000255167 0.642537 -0.766133 0 0 0
-130.244 65.2037 817.277 -0.101012 0.659319 -0.744783 0 0 0
-113.834 -10.4123 813.96 0.0911524 -0.638286 -0.759967 0 0 0
-143.807 63.6801 818.921 -0.0583009 0.878542 -0.474036 0 0 0
-138.41 64.6773 819.333 -0.253238 0.853446 -0.451392 0 0 0
-135.482 65.9301 819.374 -0.268652 0.702172 -0.658971 0 0 0
-130.445 66.8554 818.731 -0.148746 0.613345 -0.775534 0 0 0
-128.198 66.9498 818.384 -0.0916364 0.541445 -0.835093 0 0 0
-126.3 67.868 818.94 -0.0545066 0.575143 -0.815298 0 0 0
-106.757 -2.07536 818.35 0.217255 -0.935358 -0.244893 0 0 0
-133.7 70.6787 822.729 -0.370077 0.549749 -0.748741 0 0 0
-130.977 73.6177 823.816 -0.201309 0.539946 -0.817118 0 0 0
-129.152 74.5176 823.961 -0.176283 0.540276 -0.822723 0 0 0
-126.188 73.8738 823.001 -0.142174 0.531991 -0.834689 0 0 0
-124.504 72.984 822.163 -0.129941 0.527078 -0.839774 0 0 0
-127.328 75.4993 824.246 -0.160997 0.537841 -0.827512 0 0 0
-100.608 86.8597 825.344 -0.0810292 0.208308 -0.974616 0 0 0
-96.5987 86.0301 824.972 -0.00487881 0.122619 -0.991963 0 0 0
-90.814 84.1603 825.121 0.06578 0.448765 -0.890493 0 0 0
-99.1215 88.355 825.502 -0.117154 0.159174 -0.979221 0 0 0
-98.9035 90.9916 825.721 -0.118192 0.0727307 -0.989206 0 0 0
-96.5129 88.3032 825.382 0.0439164 0.176845 -0.982568 0 0 0
-98.5786 93.5222 825.573 0.168751 -0.187664 -0.949951 0 0 0
-94.3878 88.0051 825.559 0.222659 0.211575 -0.950985 0 0 0
-87.4995 84.9477 825.909 0.106544 0.485825 -0.867449 0 0 0
-81.3878 83.3532 825.809 0.133056 0.602388 -0.787012 0 0 0
-44.6435 47.0063 826.225 0.954471 0.0875897 -0.283506 0 0 0
-77.2375 97.0757 833.245 0.203419 0.191881 -0.95999 0 0 0
-79.7076 98.6822 833.058 0.268443 0.278317 -0.921762 0 0 0
-77.8892 101.65 834.583 0.170086 0.341128 -0.924191 0 0 0
-76.3215 99.5341 834.058 0.127426 0.287767 -0.948998 0 0 0
-84.1875 102.62 833.274 0.309091 0.196136 -0.929029 0 0 0
-84.2462 105.939 833.835 0.510204 0.341049 -0.786467 0 0 0
-81.184 102.515 834.123 0.280997 0.357323 -0.890437 0 0 0
-79.6953 100.934 833.889 0.238917 0.362121 -0.900799 0 0 0
-97.6517 108.48 832.528 -0.146333 0.356235 -0.92216 0 0 0
-99.825 110.439 833.784 -0.214779 0.351394 -0.911057 0 0 0
-90.0863 114.007 835.496 0.380432 0.778792 -0.478265 0 0 0
-85.5098 110.701 835.896 0.410998 0.561322 -0.717125 0 0 0
-81.1498 108.153 836.528 0.346531 0.443699 -0.826369 0 0 0
-88.2322 112.989 836.002 0.494132 0.598413 -0.629164 0 0 0
-68.381 104.176 838.765 0.588802 0.268385 -0.759084 0 0 0
-70.6737 104.878 837.38 0.539095 0.241047 -0.806685 0 0 0
-71.609 108.635 837.884 0.516763 0.336752 -0.783413 0 0 0
-71.965 106.482 836.859 0.557058 0.245537 -0.793164 0 0 0
-74.0548 113.591 839.996 -0.305958 0.246974 -0.909442 0 0 0
-72.2651 115.31 839.05 0.2724 0.743736 -0.484113 0 0 0
-60.4845 110.672 839.62 -0.262508 -0.385332 -0.882 0 0 0
-64.2957 114.045 838.18 -0.229853 -0.625725 -0.736415 0 0 0
-136.149 96.4125 838.69 -0.50797 0.810527 -0.246676 0 0 0
-135.527 97.3496 840.308 -0.581871 0.692464 -0.417676 0 0 0
-133.625 98.3588 839.717 -0.450635 0.587154 -0.66482 0 0 0
-131.012 103.916 841.232 -0.623914 0.370665 -0.687991 0 0 0
-129.052 107.387 841.304 -0.610414 0.387436 -0.69064 0 0 0
-127.542 108.69 840.755 -0.571527 0.46984 -0.672497 0 0 0
-125.843 109.656 839.88 -0.558243 0.499827 -0.660976 0 0 0
-86.2317 124.184 848.405 0.192517 0.619848 -0.760459 0 0 0
-85.2638 121.715 846.751 0.199383 0.630813 -0.748521 0 0 0
-78.7563 118.35 845.279 -0.0190866 0.598008 -0.79804 0 0 0
-62.628 100.972 844.803 0.893027 0.0447436 -0.431993 0 0 0
-143.363 101.75 851.329 -0.581763 0.320088 -0.747614 0 0 0
-142.477 103.927 851.541 -0.623122 0.302324 -0.721011 0 0 0
-141.691 106.156 851.726 -0.648395 0.282417 -0.706885 0 0 0
-140.156 107.613 850.87 -0.647993 0.272187 -0.711212 0 0 0
-144.821 106.67 855.322 -0.727019 0.357163 -0.58562 0 0 0
-143.254 112.902 856.886 -0.704392 0.35188 -0.616438 0 0 0
-191.274 -15.5056 779.067 -0.0035853 -0.0101939 -0.999828 0 0 0
-189.673 -17.0192 779.073 -0.0110969 -0.064895 -0.997393 0 0 0
-187.665 -19.0183 779.185 0.0937513 -0.065793 -0.991253 0 0 0
-185.477 -18.4283 779.388 0.0718372 -0.225402 -0.970672 0 0 0
-187.457 -16.6535 779.105 0.0295154 -0.0621883 -0.997548 0 0 0
-189.037 -14.5403 779.065 -0.00597809 0.0274825 -0.99958 0 0 0
-167.115 -19.8061 779.892 0.131079 -0.653312 -0.74434 0 0 0
-166.404 -21.6505 781.749 0.15538 -0.64372 -0.747278 0 0 0
-163.261 -20.6964 782.135 0.344189 -0.513135 -0.785902 0 0 0
-203.328 -14.8171 782.734 -0.576754 -0.163922 -0.800197 0 0 0
-203.665 -12.4593 782.504 -0.616938 -0.118139 -0.777321 0 0 0
-204.046 -9.82058 782.657 -0.601468 0.0566662 -0.79628 0 0 0
-202.002 -6.55808 782.55 -0.400359 0.507192 -0.760864 0 0 0
-175.799 -3.59109 784.319 0.411965 0.772476 -0.4811 0 0 0
-170.949 -23.767 783.368 0.05869 -0.716987 -0.694577 0 0 0
-168.178 -23.9056 783.788 0.0783541 -0.719724 -0.689786 0 0 0
-161.55 -21.3028 783.204 0.241837 -0.578974 -0.778384 0 0 0
-158.736 -21.4114 784.194 0.197802 -0.61093 -0.765561 0 0 0
-159.881 -19.9647 782.837 0.192853 -0.53574 -0.820627 0 0 0
-156.772 -20.0529 783.804 0.413028 -0.643679 -0.623636 0 0 0
-154.842 -18.8575 785.098 0.622651 0.184405 -0.755663 0 0 0
-136.26 21.1643 792.546 0.316192 0.050198 -0.945293 0 0 0
-134.384 20.1773 793.233 0.280984 -0.0472396 -0.958165 0 0 0
-157.603 22.8578 791.61 -0.301035 0.106921 -0.936262 0 0 0
-159.549 24.2088 792.859 -0.292421 0.381588 -0.87582 0 0 0
-157.407 24.9335 792.504 -0.291487 0.455126 -0.840983 0 0 0
-150.768 23.1427 791.622 -0.0686203 0.119004 -0.988966 0 0 0
-134.451 23.1413 793.583 0.288601 0.276997 -0.915975 0 0 0
-132.231 23.4366 794.358 0.262103 0.269732 -0.925984 0 0 0
-130.003 21.4882 794.675 0.263855 0.112564 -0.957918 0 0 0
-175.432 0.745795 794.569 0.462651 0.853415 -0.218983 0 0 0
-179.024 3.06069 793.212 0.524638 0.726769 -0.442006 0 0 0
-156.996 36.5859 796.993 0.00836929 0.451548 -0.891768 0 0 0
-159.226 37.3266 797.313 -0.0355838 0.542389 -0.837521 0 0 0
-154.346 34.5797 796.02 -0.0423146 0.361464 -0.931053 0 0 0
-154.849 38.0261 797.697 -0.0496866 0.464081 -0.884096 0 0 0
-152.688 37.7776 797.443 -0.0743953 0.440514 -0.894259 0 0 0
-149.67 37.0892 796.779 -0.117639 0.411078 -0.903811 0 0 0
-151.441 39.2787 798.109 -0.10466 0.501827 -0.858476 0 0 0
-148.534 39.0518 797.596 -0.132067 0.479102 -0.867566 0 0 0
-146.094 32.192 794.884 -0.00587756 0.320694 -0.947078 0 0 0
-147.429 33.6092 795.37 -0.0235335 0.29934 -0.953695 0 0 0
-137.747 30.5995 795.232 0.126136 -0.0311192 -0.98866 0 0 0
-142.95 33.0488 795.064 -0.0378083 0.182062 -0.982018 0 0 0
-139.977 31.3307 794.9 0.0845926 0.0966635 -0.989404 0 0 0
-140.466 33.3716 795.049 -0.00601169 0.100965 -0.993989 0 0 0
-126.517 34.2791 798.076 0.187186 0.262956 -0.946371 0 0 0
-138.791 41.0178 798.192 0.103956 0.593923 -0.797243 0 0 0
-133.201 38.1123 797.342 0.400666 0.522232 -0.752616 0 0 0
-138.695 42.7173 799.421 0.101007 0.524271 -0.844706 0 0 0
-132.56 39.588 798.864 0.368225 0.451519 -0.81058 0 0 0
-125.161 37.3902 799.133 0.099363 0.265366 -0.958752 0 0 0
-130.602 39.2873 799.898 -0.0685186 0.312288 -0.94614 0 0 0
-126.847 38.6782 799.432 0.0545374 0.354599 -0.933137 0 0 0
-136.003 41.9021 799.246 0.128985 0.526294 -0.839585 0 0 0
-132.201 41.4577 799.956 0.270797 0.345163 -0.894921 0 0 0
-135.977 43.6541 800.322 0.117974 0.479915 -0.86884 0 0 0
-133.897 43.0527 800.304 0.139529 0.467356 -0.872502 0 0 0
-129.311 41.1081 800.197 0.00912761 0.28469 -0.958391 0 0 0
-127.199 41.5553 800.296 0.0112728 0.351177 -0.934927 0 0 0
-127.281 43.4977 801.304 0.0878869 0.511759 -0.854491 0 0 0
-122.319 -2.45671 800.582 0.239537 -0.406179 -0.835593 0 0 0
-168.158 34.3846 800.2 -0.674453 0.16173 -0.714806 0 0 0
-169.905 33.7741 801.808 -0.64601 0.0265148 -0.761823 0 0 0
-169.983 36.9707 801.92 -0.585706 0.103383 -0.802962 0 0 0
-164.212 38.506 799.915 -0.361662 0.498181 -0.787853 0 0 0
-162.262 39.7919 800.095 -0.245743 0.60614 -0.755884 0 0 0
-160.511 41.9474 801.356 -0.447341 0.651417 -0.611107 0 0 0
-76.1843 31.6062 801.149 0.249013 -0.0516089 -0.966857 0 0 0
-74.0386 31.1863 801.564 0.171481 -0.0948092 -0.980264 0 0 0
-71.3543 32.1484 801.752 0.141244 0.0351929 -0.985109 0 0 0
-75.7737 35.6724 801.442 0.185883 0.0519427 -0.979857 0 0 0
-73.6892 36.2392 801.97 0.290665 0.0618299 -0.950105 0 0 0
-72.2284 34.0744 802.067 0.294601 0.151569 -0.942964 0 0 0
-75.5373 37.7032 801.557 0.202659 -0.0456152 -0.971965 0 0 0
-78.633 19.5869 801.837 0.255761 -0.202991 -0.943152 0 0 0
-77.1388 21.1227 802.053 0.26544 -0.101051 -0.958801 0 0 0
-170.97 30.187 802.759 -0.729319 0.0276766 -0.683377 0 0 0
-172.276 31.2218 804.286 -0.741651 0.0140603 -0.670509 0 0 0
-156.093 46.787 804.843 -0.166891 0.701106 -0.693233 0 0 0
-153.163 47.7332 805.119 -0.158369 0.703163 -0.693156 0 0 0
-152.657 49.4194 806.719 -0.16934 0.68981 -0.70385 0 0 0
-124.887 -17.2531 805.85 0.801114 0.21588 -0.555356 0 0 0
-44.5307 37.0977 811.29 -0.221035 0.350464 -0.9042 0 0 0
-150.427 50.4383 807.129 -0.174612 0.64474 -0.743782 0 0 0
-147.996 52.2598 807.971 -0.240251 0.377172 -0.892511 0 0 0
-147.265 54.843 808.886 -0.304159 0.463768 -0.831991 0 0 0
-71.6919 59.4093 809.829 0.0651784 0.365442 -0.928318 0 0 0
-73.6448 60.5746 810.19 0.0650302 0.407876 -0.910548 0 0 0
-75.7313 62.0245 810.77 0.0457366 0.47308 -0.879754 0 0 0
-69.2275 59.9605 810.123 0.011107 0.305649 -0.951572 0 0 0
-66.8335 59.4596 809.97 0.00684134 0.246576 -0.968095 0 0 0
-67.7175 61.6235 810.616 -0.0504925 0.323694 -0.943936 0 0 0
-65.1696 61.0757 810.178 -0.0865003 0.176199 -0.977041 0 0 0
-62.6243 59.2525 810.28 0.119436 0.0647073 -0.990515 0 0 0
-63.1666 61.4369 810.754 0.282967 0.450658 -0.846493 0 0 0
-147.475 58.8735 811.232 -0.157462 0.636598 -0.751057 0 0 0
-144.311 60.123 811.622 -0.104585 0.862404 -0.479099 0 0 0
-139.144 60.0518 811.979 0.00555405 0.811586 -0.584199 0 0 0
-136.342 59.7224 811.602 0.0089191 0.77628 -0.630082 0 0 0
-141.291 60.4614 812.562 1.69764e-05 0.832073 -0.554555 0 0 0
-133.826 59.9676 812.043 0.0407339 0.738413 -0.672957 0 0 0
-131.705 60.5495 812.752 0.0184263 0.723295 -0.690171 0 0 0
-128.888 59.0246 811.406 0.0615601 0.688877 -0.72216 0 0 0
-114.251 -7.67265 811.783 0.126922 -0.569674 -0.810924 0 0 0
-111.886 -8.61275 812.591 0.00857807 -0.594674 -0.803507 0 0 0
-109.534 -8.27478 812.288 -0.045543 -0.608434 -0.791839 0 0 0
-107.331 -8.55378 812.214 -0.0673589 -0.534088 -0.840995 0 0 0
-146.569 61.3891 814.604 -0.0631974 0.877081 -0.475066 0 0 0
-143.971 60.9953 813.574 -0.0612478 0.867824 -0.492802 0 0 0
-137.636 61.3764 813.87 -0.0282766 0.819251 -0.572409 0 0 0
-141.635 61.4959 814.344 -0.0551231 0.871756 -0.486813 0 0 0
-133.967 61.2497 813.556 -0.0316114 0.765278 -0.642733 0 0 0
-135.118 62.4104 815.051 -0.0644465 0.763099 -0.642825 0 0 0
-132.479 62.3475 814.736 -0.0466433 0.72612 -0.685749 0 0 0
-132.077 64.0147 816.415 -0.0899798 0.706917 -0.701359 0 0 0
-130.469 62.115 814.38 -0.0239004 0.698983 -0.714542 0 0 0
-127.906 61.9291 814.165 0.00730024 0.678662 -0.734221 0 0 0
-129.158 63.563 815.685 -0.0375142 0.675051 -0.736734 0 0 0
-42.7549 39.5741 815.383 0.315996 0.862182 -0.364736 0 0 0
-49.3953 44.2812 815.205 0.651016 0.338949 -0.676949 0 0 0
-145.519 62.6988 817.139 -0.0504177 0.887131 -0.458675 0 0 0
-143.303 62.1704 815.816 -0.0617661 0.882133 -0.466897 0 0 0
-141.915 63.2995 817.862 -0.079484 0.883687 -0.461266 0 0 0
-137.946 62.915 816.235 -0.126187 0.818569 -0.559099 0 0 0
-136.524 64.2269 817.663 -0.180719 0.780372 -0.598304 0 0 0
-134.282 64.2992 817.089 -0.157113 0.737562 -0.656218 0 0 0
-132.474 65.6522 818.089 -0.167057 0.667957 -0.725043 0 0 0
