ply
format ascii 1.0
comment Created by Open3D
element vertex 800
property double x
property double y
property double z
property double nx
property double ny
property double nz
property uchar red
property uchar green
property uchar blue
end_header
-93.4362 41.3647 802.171 0.0325537 0.327861 -0.943804 0 0 0
-88.8468 40.6029 801.968 0.00478078 0.346326 -0.937922 0 0 0
-125.982 -3.54998 802.214 0.18957 -0.868961 -0.452442 0 0 0
-170.623 2.62922 801.048 -0.32887 0.617148 -0.699025 0 0 0
-169.666 9.15604 803.54 -0.758348 -0.0241923 -0.649319 0 0 0
-169.159 13.5802 802.255 -0.697011 -0.187764 -0.691513 0 0 0
-170.887 16.1593 803.247 -0.755193 -0.230547 -0.613618 0 0 0
-171.67 18.9595 803.081 -0.799732 -0.206032 -0.563281 0 0 0
-172.201 21.3875 802.994 -0.855374 -0.107575 -0.505084 0 0 0
-124.63 47.205 803.825 0.0825404 0.491932 -0.866635 0 0 0
-105.011 46.6941 804.893 -0.125756 0.411068 -0.902438 0 0 0
-103.963 48.2747 805.506 -0.0755298 0.448612 -0.890215 0 0 0
-101.754 49.3409 805.855 -0.108012 0.444037 -0.889151 0 0 0
-100.787 47.4093 804.798 -0.0739655 0.430801 -0.899271 0 0 0
-97.761 46.1668 804.05 -0.0354616 0.403988 -0.91393 0 0 0
-98.5301 48.175 804.955 -0.0640043 0.389514 -0.918593 0 0 0
-95.7359 46.6375 804.174 -0.0203387 0.369434 -0.928908 0 0 0
-96.2953 48.4571 804.923 -0.0434244 0.365314 -0.929781 0 0 0
-99.0403 51.377 806.296 -0.108196 0.36515 -0.924558 0 0 0
-95.8049 50.679 805.734 -0.0490531 0.347591 -0.936311 0 0 0
-93.6844 47.0582 804.347 0.0242856 0.337052 -0.941034 0 0 0
-92.225 48.5579 804.926 0.0413036 0.313347 -0.948453 0 0 0
-93.9364 50.1133 805.453 -0.023982 0.341158 -0.939697 0 0 0
-65.1897 37.88 806.003 0.323775 0.394802 -0.858474 0 0 0
-155.871 46.4855 804.483 -0.167328 0.701643 -0.692587 0 0 0
-155.619 48.3126 806.285 -0.15553 0.702999 -0.693968 0 0 0
-152.964 48.1778 805.533 -0.160582 0.702654 -0.693169 0 0 0
-83.6067 6.33845 806.68 0.37163 -0.333392 -0.865987 0 0 0
-82.7465 4.18707 807.741 0.361155 -0.275959 -0.890588 0 0 0
-82.6597 8.18833 806.428 0.46537 -0.270669 -0.842319 0 0 0
-88.3864 12.3345 805.621 0.0172979 0.44815 -0.892679 0 0 0
-84.475 10.7695 805.17 0.261102 0.171598 -0.938827 0 0 0
-87.7371 14.3691 806.779 0.0633229 -0.634975 -0.377779 0 0 0
-84.4604 12.9823 805.45 0.061375 -0.167206 -0.976212 0 0 0
-82.4652 11.357 805.94 0.341313 -0.0904453 -0.923861 0 0 0
-79.59 12.5118 806.642 0.269205 -0.409167 -0.871233 0 0 0
-123.798 -14.3232 808.07 0.673649 0.263754 -0.688349 0 0 0
-124.694 -17.6897 805.899 0.793931 0.202211 -0.568947 0 0 0
-60.0786 35.1746 808.085 0.425487 0.0787425 -0.901192 0 0 0
-62.4153 38.9779 807.514 0.359004 0.211345 -0.908295 0 0 0
-58.5818 38.6117 809.147 0.397351 0.113721 -0.910575 0 0 0
-65.8294 40.2342 806.708 0.250155 0.228353 -0.939674 0 0 0
-63.7729 41.1117 807.486 0.306818 0.19651 -0.930925 0 0 0
-61.2608 41.0494 808.352 0.325115 0.170475 -0.929988 0 0 0
-62.9591 45.0331 808.484 0.323805 0.148323 -0.934265 0 0 0
-63.9174 47.0394 808.425 0.342415 0.128029 -0.930727 0 0 0
-60.8343 45.1112 809.234 0.332437 0.167702 -0.927984 0 0 0
-59.6239 43.3435 809.315 0.372792 0.18835 -0.90847 0 0 0
-58.2997 41.7173 809.689 0.403541 0.127367 -0.906042 0 0 0
-57.549 43.4998 810.303 0.399964 0.144277 -0.905065 0 0 0
-125.304 58.2947 811.292 0.135569 0.64854 -0.748986 0 0 0
-121.564 56.7145 810.56 0.117872 0.660939 -0.740815 0 0 0
-117.256 57.1158 810.866 -0.119199 0.596126 -0.792757 0 0 0
-48.864 22.3481 815.891 0.357627 -0.422494 -0.832472 0 0 0
-42.8689 39.6933 815.69 0.420575 0.845178 -0.304873 0 0 0
-47.3909 42.2896 815.778 0.597181 0.539585 -0.592017 0 0 0
-48.9359 44.8605 816.016 0.700838 0.315986 -0.636926 0 0 0
-92.0291 73.4116 817.44 0.0245903 0.5794 -0.814668 0 0 0
-83.0724 73.2526 817.66 0.0412841 0.6058 -0.794541 0 0 0
-82.7539 71.5423 816.372 0.0387489 0.600425 -0.798735 0 0 0
-80.8545 73.6121 818.057 0.0429255 0.60533 -0.794816 0 0 0
-77.5158 72.2092 817.19 0.0504799 0.600134 -0.798296 0 0 0
-140.286 71.5524 828.938 -0.705026 0.524967 -0.476521 0 0 0
-139.64 73.4936 829.995 -0.762105 0.472011 -0.442394 0 0 0
-137.993 78.7914 831.833 -0.529474 0.507838 -0.676877 0 0 0
-135.285 80.1873 831.329 -0.341829 0.603619 -0.7189 0 0 0
-130.975 80.7345 829.795 -0.379357 0.636403 -0.670216 0 0 0
-128.945 82.2641 829.86 -0.401969 0.541117 -0.738553 0 0 0
-126.889 83.7443 829.665 -0.413336 0.44854 -0.792334 0 0 0
-123.687 91.3298 831.157 -0.391204 0.278451 -0.876974 0 0 0
-121.915 93.0838 830.966 -0.33569 0.224019 -0.913733 0 0 0
-78.1536 93.244 832.419 0.229546 0.151652 -0.961371 0 0 0
-69.4713 87.6603 832.57 0.350955 0.445134 -0.822904 0 0 0
-66.1528 84.9832 832.512 0.431026 0.595591 -0.675535 0 0 0
-63.0911 82.9153 832.702 0.48804 0.578447 -0.653019 0 0 0
-54.2027 93.9382 832.87 -0.54398 -0.546724 -0.636407 0 0 0
-125.561 97.4364 833.86 -0.506193 0.263293 -0.820923 0 0 0
-106.946 106.11 833.083 0.0666083 0.506123 -0.857653 0 0 0
-104.908 106.871 833.528 -0.0813123 0.518618 -0.84556 0 0 0
-121.915 106.959 835.163 -0.444094 0.555682 -0.699823 0 0 0
-63.5833 90.8653 836.825 0.605921 -0.0911665 -0.785357 0 0 0
-59.1998 93.7277 836.578 -0.194267 -0.795368 -0.562244 0 0 0
-123.668 109.756 838.267 -0.482708 0.471075 -0.738009 0 0 0
-137.944 95.719 838.025 -0.796329 0.440361 0.320428 0 0 0
-136.048 96.4201 838.442 -0.450135 0.846314 -0.266426 0 0 0
-132.98 99.8414 840.485 -0.539048 0.485443 -0.687936 0 0 0
-129.693 106.078 841.189 -0.624129 0.369859 -0.688232 0 0 0
-127.06 108.666 840.297 -0.571199 0.465891 -0.675478 0 0 0
-125.56 109.832 839.738 -0.538405 0.510244 -0.668858 0 0 0
-70.506 111.119 839.481 0.310297 0.212029 -0.926612 0 0 0
-68.3908 109.603 839.865 0.299863 0.185423 -0.934096 0 0 0
-67.9789 111.645 840.667 0.25547 0.284118 -0.906982 0 0 0
-65.8359 111.075 840.343 -0.158256 0.0530333 -0.966759 0 0 0
-70.7671 117.861 842.486 -0.123489 0.64454 -0.752459 0 0 0
-66.5132 118.552 841.508 -0.31604 0.527664 -0.783436 0 0 0
-134.944 99.4599 842.043 -0.654893 0.507633 -0.557865 0 0 0
-134.099 101.247 842.635 -0.643199 0.424072 -0.637127 0 0 0
-133.28 103.982 843.507 -0.647782 0.35883 -0.671652 0 0 0
-131.713 107.323 843.698 -0.602195 0.333462 -0.72464 0 0 0
-126.6 112.306 842.806 -0.523597 0.541474 -0.657315 0 0 0
-127.414 113.352 844.303 -0.473445 0.576359 -0.665578 0 0 0
-124.436 113.5 842.117 -0.501989 0.605409 -0.617359 0 0 0
-125.677 114.553 844.144 -0.467636 0.619201 -0.630657 0 0 0
-104.005 131.371 849.065 -0.499824 -0.490616 -0.713258 0 0 0
-101.974 131.299 847.737 -0.422227 -0.569763 -0.704591 0 0 0
-100.508 125.959 848.512 -0.197024 0.633492 -0.748196 0 0 0
-94.6529 125.89 848.552 0.303402 0.71673 -0.62662 0 0 0
-94.1764 129.711 848.853 0.309823 -0.773646 -0.551716 0 0 0
-92.0653 131.071 848.388 0.406737 -0.732936 -0.541513 0 0 0
-87.4904 124.333 848.488 0.114966 0.731383 -0.671875 0 0 0
-83.9497 122.11 847.703 0.359203 0.657261 -0.662073 0 0 0
-81.9419 120.526 846.863 0.219525 0.711003 -0.66587 0 0 0
-79.8961 120.131 846.936 0.113037 0.784701 -0.606813 0 0 0
-77.3643 121.499 849.287 0.0469602 0.859935 -0.503478 0 0 0
-90.4191 125.979 850.191 0.00614877 0.782554 -0.617537 0 0 0
-85.2207 125.163 850.219 0.316456 0.730855 -0.599996 0 0 0
-88.7953 131.801 851.819 0.652658 -0.16735 -0.707922 0 0 0
-89.0477 133.064 849.942 0.710843 -0.542509 -0.445606 0 0 0
-185.24 -18.1985 779.406 0.0683443 -0.222919 -0.971692 0 0 0
-181.135 -15.5564 778.998 0.0756938 0.104878 -0.991142 0 0 0
-175.363 -18.6289 777.991 0.061795 -0.49224 -0.823869 0 0 0
-172.816 -18.3597 778.265 -0.143521 -0.345637 -0.910043 0 0 0
-177.554 -16.4727 778.817 -0.0640397 0.336163 -0.938457 0 0 0
-178.927 -14.7495 779.335 0.0729445 0.24471 -0.965052 0 0 0
-175.837 -14.8095 779.33 -0.0376003 0.379729 -0.923954 0 0 0
-173.788 -16.0845 778.721 -0.0423479 0.35425 -0.933951 0 0 0
-171.599 -15.9303 778.563 -0.109128 0.337317 -0.934335 0 0 0
-192.071 -12.7738 779.155 0.0251725 0.0911613 -0.994471 0 0 0
-194.157 -10.8925 779.163 0.115575 0.206634 -0.970666 0 0 0
-191.395 -10.574 779.574 0.0457631 0.232881 -0.970326 0 0 0
-189.29 -12.0958 779.292 -0.00442286 0.153592 -0.987346 0 0 0
-187.144 -11.7794 779.302 0.0290055 0.157027 -0.986555 0 0 0
-182.671 -12.4019 779.476 0.0803979 0.219172 -0.97231 0 0 0
-177.489 -12.2609 780.302 0.122053 0.339095 -0.932206 0 0 0
-175.411 -12.5475 780.329 0.0280591 0.419756 -0.905828 0 0 0
-172.908 -13.7496 779.626 -0.0749353 0.409931 -0.908743 0 0 0
-185.591 2.4737 787.37 0.297521 0.84117 -0.449979 0 0 0
-150.881 -37.8233 788.712 0.0175907 -0.389312 -0.917816 0 0 0
-152.722 -31.8391 788.976 -0.088945 0.190003 -0.977434 0 0 0
-154.478 -29.6806 789.706 -0.258756 0.0584099 -0.961905 0 0 0
-150.752 -30.8712 789.024 -0.0302152 0.121063 -0.990112 0 0 0
-152.557 -29.719 789.246 -0.10214 0.0214183 -0.989096 0 0 0
-153.79 -26.3189 788.869 -0.0768618 -0.321459 -0.940671 0 0 0
-145.947 -38.9726 789.884 0.242777 -0.456054 -0.853619 0 0 0
-143.927 -39.1264 790.772 0.455908 -0.418187 -0.777535 0 0 0
-145.663 -33.4944 789.254 0.462071 0.210307 -0.858658 0 0 0
-134.543 20.4803 793.176 0.295227 -0.0100855 -0.954204 0 0 0
-159.068 22.059 791.913 -0.202063 0.137266 -0.966938 0 0 0
-158.471 24.3153 792.548 -0.304295 0.402816 -0.861724 0 0 0
-153.243 23.1885 791.654 0.0092201 0.101397 -0.993264 0 0 0
-149.329 22.5828 791.491 -0.0924922 0.0881182 -0.989721 0 0 0
-149.656 8.22609 795.419 -0.0838178 -0.261488 -0.961252 0 0 0
-151.215 9.57445 795.217 -0.129482 -0.283871 -0.949917 0 0 0
-165.216 20.521 794.391 -0.73215 0.0982409 -0.609655 0 0 0
-158.776 16.5559 794.359 -0.198226 -0.588341 -0.783859 0 0 0
-134.727 -13.1546 796.257 0.368538 0.614761 -0.694567 0 0 0
-188.687 6.78551 793.965 0.156109 0.882602 -0.442689 0 0 0
-186.503 6.46495 794.106 0.172769 0.866249 -0.467602 0 0 0
-184.058 5.62085 793.506 0.170859 0.850429 -0.49751 0 0 0
-181.218 5.44944 794.414 0.302633 0.802479 -0.513398 0 0 0
-128.958 12.7658 797.67 0.178019 -0.388447 -0.902639 0 0 0
-136.248 -4.75897 798.116 -0.116905 0.038329 -0.986873 0 0 0
-134.506 -6.70448 798.285 0.277407 -0.0302142 -0.9322 0 0 0
-136.974 -2.87099 798.143 -0.160717 -0.14397 -0.975869 0 0 0
-134.288 -3.05622 797.785 -0.047832 -0.221014 -0.973897 0 0 0
-132.766 -4.70402 798.98 0.476167 -0.209102 -0.852134 0 0 0
-131.983 -1.93174 798.562 0.389503 -0.235184 -0.889391 0 0 0
-130.092 -1.99284 799.454 0.358625 -0.34117 -0.867756 0 0 0
-173.298 0.444902 797.285 0.281143 0.908505 -0.301534 0 0 0
-159.056 0.939845 797.661 -0.226137 0.206159 -0.951103 0 0 0
-159.139 3.30728 798.124 -0.274653 0.106947 -0.951921 0 0 0
-155.469 2.67902 797.297 -0.139767 0.0389283 -0.98895 0 0 0
-156.633 4.86724 797.478 -0.201647 -0.0313337 -0.978688 0 0 0
-106.294 19.3903 798.734 -0.107961 -0.0985916 -0.989066 0 0 0
-106.644 21.9047 798.594 -0.178057 -0.084693 -0.979711 0 0 0
-104.415 20.8699 798.322 -0.136619 -0.104236 -0.984378 0 0 0
-99.1863 8.39735 802.397 0.350706 -0.273903 -0.895204 0 0 0
-100.12 14.9343 800.309 0.228885 -0.268232 -0.935305 0 0 0
-97.892 15.0732 800.84 0.232256 -0.304606 -0.923675 0 0 0
-99.2918 16.843 799.88 0.21839 -0.310518 -0.925052 0 0 0
-93.6977 15.629 801.137 0.0482502 -0.534616 -0.835285 0 0 0
-96.9766 17.9699 800.108 0.21615 -0.317314 -0.923078 0 0 0
-94.7018 17.1897 800.234 -0.0635378 -0.42031 -0.898253 0 0 0
-98.4814 19.0295 799.259 0.262091 -0.326464 -0.907382 0 0 0
-92.1517 17.6871 799.973 0.0242904 0.0443492 -0.98696 0 0 0
-89.946 18.4078 800.27 0.0762739 0.0659578 -0.994805 0 0 0
-93.8331 20.792 799.569 0.0715868 -0.118153 -0.990271 0 0 0
-157.471 41.8953 800.602 -0.0661061 0.635264 -0.769205 0 0 0
-154.873 42.7954 801.077 -0.1075 0.62844 -0.770218 0 0 0
-156.367 44.1478 802.421 -0.12076 0.646497 -0.752745 0 0 0
-152.415 43.7926 801.487 -0.132098 0.629884 -0.765349 0 0 0
-147.459 43.5051 800.359 -0.094776 0.591771 -0.800234 0 0 0
-172.004 24.5571 803.257 -0.750868 0.104935 -0.652029 0 0 0
-170.749 26.5399 802.223 -0.712869 0.0840959 -0.696032 0 0 0
-171.935 31.0682 803.872 -0.740692 0.0138196 -0.671545 0 0 0
-107.119 46.8107 805.235 -0.0678329 0.338691 -0.93618 0 0 0
-125.143 -12.1528 807.837 0.549884 0.299948 -0.777569 0 0 0
-122.847 -5.47263 807.924 0.266194 -0.923744 -0.273611 0 0 0
-117.474 -5.32026 808.094 0.124981 -0.793367 -0.592228 0 0 0
-114.555 -4.64953 808.42 0.211941 -0.825072 -0.523199 0 0 0
-112.887 -3.45962 807.224 0.154488 -0.803302 -0.574016 0 0 0
-110.727 -3.90239 808.233 0.0237636 -0.773192 -0.632297 0 0 0
-108.51 -2.85472 807.161 0.0624733 -0.715753 -0.694676 0 0 0
-104.416 -3.60007 808.092 0.0427753 -0.663789 -0.745775 0 0 0
-103.441 0.079555 805.433 0.087329 -0.570878 -0.815895 0 0 0
-44.6972 37.003 811.289 -0.216068 0.330548 -0.916031 0 0 0
-148.849 50.4382 806.809 -0.163782 0.646552 -0.744941 0 0 0
-148.551 52.5113 808.174 -0.234574 0.402433 -0.883938 0 0 0
-146.43 52.9125 807.695 -0.283685 0.302944 -0.909414 0 0 0
-145.16 56.0459 808.866 -0.256236 0.548553 -0.794357 0 0 0
-74.4493 8.25155 810.062 0.10132 -0.399008 -0.904811 0 0 0
-75.1707 10.4483 808.834 0.271566 -0.353177 -0.894187 0 0 0
-72.4289 9.20729 809.605 0.018468 -0.328276 -0.943509 0 0 0
-66.8067 10.0168 809.59 0.110193 0.00976051 -0.98428 0 0 0
-64.5178 8.92615 809.909 0.436953 0.108097 -0.885864 0 0 0
-64.4626 10.9619 810.387 0.525508 0.0731676 -0.84088 0 0 0
-75.2594 12.9825 807.913 0.2792 -0.311714 -0.907131 0 0 0
-63.6644 14.2959 810.664 0.583055 -0.261856 -0.768457 0 0 0
-60.9763 19.6868 810.573 0.51899 -0.337766 -0.785121 0 0 0
-121.646 62.1345 814.704 0.0114277 0.513162 -0.857422 0 0 0
-119.792 59.8915 813.721 0.0433577 0.373631 -0.922034 0 0 0
-117.023 62.3011 814.029 -0.263029 0.4161 -0.870235 0 0 0
-115.458 64.4983 814.649 -0.163974 0.590761 -0.789089 0 0 0
-120.386 -10.4749 810.557 0.369832 -0.116634 -0.921361 0 0 0
-96.4947 70.905 815.7 -0.0325629 0.566198 -0.823311 0 0 0
-94.3238 70.8992 815.637 -0.0084187 0.570736 -0.820985 0 0 0
-92.1172 71.4272 816.039 0.0212719 0.574676 -0.818103 0 0 0
-90.195 72.3258 816.734 0.0224327 0.574414 -0.818251 0 0 0
-89.799 70.3135 815.356 0.0333367 0.562057 -0.826407 0 0 0
-87.5542 72.2562 816.768 0.0191522 0.564248 -0.825359 0 0 0
-86.9185 70.6397 815.689 0.0196468 0.55711 -0.830135 0 0 0
-85.0252 71.8219 816.506 0.00689997 0.568866 -0.8223 0 0 0
-86.1104 73.5661 817.743 0.0292117 0.594115 -0.803835 0 0 0
-79.1093 70.7926 816.028 0.0450014 0.577495 -0.815102 0 0 0
-61.8126 69.1567 816.994 0.264056 0.688054 -0.675743 0 0 0
-55.3468 65.7 816.983 0.468161 0.11217 -0.874845 0 0 0
-55.8413 68.07 818.207 0.211931 0.622138 -0.752651 0 0 0
-53.4834 68.0812 819.061 0.311112 0.556471 -0.766375 0 0 0
-48.7096 47.1389 817.196 0.803251 0.196105 -0.561678 0 0 0
-50.0379 54.2901 817.464 0.815805 0.125421 -0.563099 0 0 0
-49.1342 51.3022 817.871 0.781906 0.115922 -0.612313 0 0 0
-49.8289 56.1924 816.968 0.529404 -0.272774 -0.800121 0 0 0
-48.242 57.491 817.362 0.294761 -0.403798 -0.850961 0 0 0
-47.0739 50.1989 820.51 0.84155 -0.0278458 -0.539119 0 0 0
-46.2711 48.1969 821.883 0.882387 0.0240017 -0.469493 0 0 0
-46.152 53.0409 821.594 0.858855 -0.0751554 -0.506379 0 0 0
-50.4487 69.6327 821.042 0.460002 0.344025 -0.818549 0 0 0
-48.7458 68.8155 821.638 0.462876 0.330584 -0.822438 0 0 0
-95.4716 83.3831 825.032 0.255493 0.162684 -0.921022 0 0 0
-94.1221 84.9239 825.092 0.0474042 0.0945267 -0.991246 0 0 0
-89.7913 85.6372 825.946 0.180364 0.296471 -0.937712 0 0 0
-92.3146 86.3181 825.632 0.190401 0.261046 -0.946052 0 0 0
-90.0216 87.9982 826.677 0.222073 0.297828 -0.928207 0 0 0
-95.1697 89.4842 825.779 0.197139 0.20105 -0.959234 0 0 0
-90.4482 90.3634 827.308 0.289612 0.287272 -0.912218 0 0 0
-94.728 91.4791 826.37 0.266326 0.224367 -0.937166 0 0 0
-92.2694 91.1221 826.989 0.263056 0.250727 -0.931592 0 0 0
-95.2235 93.636 826.766 0.291362 0.223429 -0.92999 0 0 0
-93.3221 92.9072 827.17 0.275678 0.246724 -0.929002 0 0 0
-91.1547 92.7503 827.755 0.270312 0.251774 -0.929264 0 0 0
-92.1807 94.8266 828.038 0.280261 0.25691 -0.924828 0 0 0
-83.3334 85.4302 827.048 0.209553 0.578162 -0.787583 0 0 0
-85.5708 88.1261 827.997 0.342559 0.45802 -0.817003 0 0 0
-82.9941 87.4691 828.996 0.378514 0.512781 -0.765104 0 0 0
-80.7742 85.9696 828.024 0.136511 0.587335 -0.797539 0 0 0
-78.8199 85.1219 827.658 0.157985 0.612272 -0.774508 0 0 0
-76.531 87.3457 829.863 0.180607 0.595235 -0.782778 0 0 0
-86.5684 91.1752 829.079 0.35726 0.310573 -0.879478 0 0 0
-84.1436 89.045 829.332 0.4073 0.443555 -0.795839 0 0 0
-87.2952 93.186 829.356 0.357817 0.203532 -0.911163 0 0 0
-70.9532 81.326 827.519 0.395097 0.556283 -0.727295 0 0 0
-71.563 83.849 828.908 0.327389 0.568015 -0.754879 0 0 0
-74.9457 85.5375 828.928 0.244082 0.598 -0.763268 0 0 0
-73.723 86.836 830.35 0.266505 0.576392 -0.772315 0 0 0
-52.0984 93.9759 831.059 -0.542781 -0.513696 -0.664157 0 0 0
-132.052 86.7524 833.898 -0.419151 0.384636 -0.822256 0 0 0
-129.586 88.7872 833.452 -0.482742 0.348371 -0.8033 0 0 0
-127.881 90.4197 833.067 -0.509932 0.28819 -0.810038 0 0 0
-129.534 92.4552 834.897 -0.542547 0.275247 -0.792943 0 0 0
-128.727 94.7404 835.04 -0.597586 0.253772 -0.758559 0 0 0
-127.351 92.4193 833.401 -0.51141 0.255565 -0.819887 0 0 0
-136.732 95.8584 835.647 -0.481324 -0.851086 -0.200291 0 0 0
-124.947 100.621 834.306 -0.617109 0.229523 -0.751884 0 0 0
-124.386 103.413 834.888 -0.615614 0.370731 -0.695353 0 0 0
-117.13 110.045 835.704 -0.115909 0.416926 -0.897876 0 0 0
-104.453 108.732 834.872 -0.13185 0.167574 -0.974077 0 0 0
-106.914 114.955 836.338 0.127232 0.630519 -0.763995 0 0 0
-104.2 114.349 835.879 -0.0525273 0.618297 -0.772407 0 0 0
-61.0903 113.399 838.571 -0.0338132 -0.498575 -0.865118 0 0 0
-69.7262 104.234 837.815 0.551316 0.270395 -0.787394 0 0 0
-68.4955 105.35 839.085 0.580256 0.208723 -0.786534 0 0 0
-71.0551 109.25 838.589 0.480172 0.365851 -0.792118 0 0 0
-71.8154 107.061 837.157 0.557579 0.274579 -0.782414 0 0 0
-75.0038 112.927 839.976 -0.141141 0.466701 -0.870683 0 0 0
-73.2934 110.404 838.564 0.174417 0.46853 -0.861629 0 0 0
-70.1578 107.483 838.515 0.532512 0.254002 -0.806423 0 0 0
-72.4248 112.387 839.323 0.0116229 0.19419 -0.972397 0 0 0
-72.3106 115.447 838.653 0.176364 0.815105 -0.44281 0 0 0
-63.4858 113.498 838.46 -0.144945 -0.611125 -0.777139 0 0 0
-117.495 117.299 840.681 -0.352614 0.817893 -0.453286 0 0 0
-112.635 118.476 840.403 -0.123732 0.792392 -0.595401 0 0 0
-110.326 118.553 840.19 0.0184894 0.762543 -0.64455 0 0 0
-86.4184 116.723 841.302 0.340512 0.706133 -0.620411 0 0 0
-66.1748 101.25 838.914 0.57171 0.62469 -0.5232 0 0 0
-167.176 -17.3848 776.558 -0.441817 0.425245 -0.784068 0 0 0
-165.083 -16.7517 777.632 0.697064 -0.603206 -0.357401 0 0 0
-185.668 -22.0224 780.725 0.237419 -0.515654 -0.822173 0 0 0
-188.601 -22.1189 780.245 -0.145919 -0.53399 -0.827717 0 0 0
-194.229 -17.1958 779.88 -0.270185 -0.365768 -0.889829 0 0 0
-181.986 -19.3678 779.86 0.0359966 -0.446 -0.893492 0 0 0
-179.82 -20.6492 780.548 -0.0838872 -0.501858 -0.860043 0 0 0
-174.671 -21.5799 780.729 0.069185 -0.688267 -0.718592 0 0 0
-180.012 -17.4119 778.96 -0.0251454 -0.312168 -0.94721 0 0 0
-194.356 -7.45192 780.614 -0.00440102 0.427924 -0.903774 0 0 0
-198.895 -20.3602 782.714 -0.140042 -0.46976 -0.871494 0 0 0
-202.662 -18.1518 783.076 -0.413424 -0.193087 -0.888683 0 0 0
-204.017 -13.1796 782.901 -0.597603 -0.145728 -0.788203 0 0 0
-202.323 -6.74419 782.659 -0.423959 0.466731 -0.774452 0 0 0
-144.825 23.7444 789.259 0.0963923 0.88849 -0.407653 0 0 0
-148.998 -32.0409 788.748 0.0896177 0.170352 -0.980113 0 0 0
-145.031 -29.3506 789.989 0.328795 1.71182e-05 -0.94323 0 0 0
-149.172 -27.7349 789.129 0.0990381 -0.0289119 -0.993287 0 0 0
-147.499 -28.992 789.302 0.151386 0.00461807 -0.987818 0 0 0
-147.465 -26.4452 789.332 0.193663 -0.0320085 -0.979087 0 0 0
-144.709 -25.8706 790.088 0.313206 -0.0525416 -0.947936 0 0 0
-161.73 -12.4703 788.236 0.586522 0.737217 -0.318657 0 0 0
-149.213 -25.4612 788.936 0.124369 -0.177816 -0.97532 0 0 0
-158.995 -13.7382 788.812 0.315677 0.830341 -0.457939 0 0 0
-148.384 18.0013 792.001 0.00144763 -0.264378 -0.964297 0 0 0
-141.257 18.4268 792.3 0.0734553 -0.336691 -0.938702 0 0 0
-143.517 19.869 791.601 0.0327948 -0.344255 -0.937638 0 0 0
-138.399 19.3011 792.307 0.132012 -0.292432 -0.94475 0 0 0
-148.598 26.3993 792.52 -0.0836602 0.429254 -0.899206 0 0 0
-144.89 26.3218 792.119 -0.0214743 0.506999 -0.861532 0 0 0
-137.188 23.5902 792.57 0.419168 0.315515 -0.849453 0 0 0
-142.464 26.6317 792.438 0.111162 0.509869 -0.851701 0 0 0
-139.864 26.4079 792.947 0.236713 0.489905 -0.838384 0 0 0
-134.288 36.126 794.777 0.707619 -0.0322343 -0.703129 0 0 0
-126.012 18.9835 796.528 0.338243 -0.173865 -0.924215 0 0 0
-130.924 35.731 797.285 0.312222 0.302141 -0.899566 0 0 0
-136.139 39.6513 797.617 0.183479 0.614872 -0.765997 0 0 0
-123.685 24.7743 797.497 0.384083 0.0744189 -0.919818 0 0 0
-125.768 27.0579 796.803 0.350825 0.0746404 -0.932981 0 0 0
-114.153 25.1154 798.181 -0.0101814 0.0114205 -0.999822 0 0 0
-116.309 26.9474 798.186 0.0364203 0.0589621 -0.997465 0 0 0
-124.327 28.784 797.425 0.304586 0.081683 -0.947987 0 0 0
-160.086 7.51665 798.269 -0.369815 -0.191308 -0.908683 0 0 0
-160.619 9.71202 797.931 -0.3711 -0.242163 -0.896402 0 0 0
-163.799 13.6753 797.839 -0.427733 -0.391184 -0.813006 0 0 0
-168.8 18.8575 799.798 -0.671924 -0.270776 -0.688804 0 0 0
-169.453 21.4515 799.874 -0.584816 -0.000238466 -0.806062 0 0 0
-167.654 22.2439 798.516 -0.688866 0.0923936 -0.717988 0 0 0
-112.183 34.7368 799.834 0.117661 0.235509 -0.964661 0 0 0
-106.931 33.6467 799.886 0.0169219 0.328664 -0.943891 0 0 0
-97.7871 23.3038 798.676 0.214365 -0.012998 -0.976436 0 0 0
-95.6913 23.4545 799.066 0.147583 0.0254071 -0.988107 0 0 0
-99.7305 27.1455 798.34 0.277435 0.115473 -0.953536 0 0 0
-99.0406 25.2361 798.4 0.258824 0.0630612 -0.963802 0 0 0
-95.723 25.5627 799.159 0.162597 0.0843188 -0.982541 0 0 0
-89.7492 22.2086 799.848 0.105211 -0.0378466 -0.993603 0 0 0
-91.6337 23.2842 799.562 0.126927 -0.0244764 -0.991347 0 0 0
-93.778 24.2947 799.298 0.113597 0.0783817 -0.99025 0 0 0
-94.2753 28.4298 799.608 0.0966448 0.10641 -0.989554 0 0 0
-92.0151 27.8749 799.772 0.0930884 0.0940397 -0.991139 0 0 0
-90.9107 25.5063 799.716 0.100115 0.0478136 -0.993522 0 0 0
-89.4049 27.5126 799.974 0.0820823 0.0621158 -0.994585 0 0 0
-88.0577 25.7437 799.982 0.0867093 0.0302133 -0.995615 0 0 0
-99.835 30.1014 799.085 0.215988 0.313605 -0.924 0 0 0
-97.9348 31.2869 799.827 0.11399 0.275556 -0.953954 0 0 0
-96.3853 29.6646 799.591 0.0731516 0.216615 -0.973323 0 0 0
-95.8139 32.8626 800.411 0.00641885 0.215839 -0.97628 0 0 0
-90.9264 29.8876 800.077 0.0755145 0.116287 -0.99009 0 0 0
-94.6756 31.2759 800.055 0.0459696 0.196032 -0.979092 0 0 0
-92.5272 31.8948 800.267 0.0475214 0.168079 -0.984449 0 0 0
-168.684 2.59335 800.451 -0.199387 0.467673 -0.859548 0 0 0
-168.797 5.83022 802.009 -0.565434 0.266739 -0.777992 0 0 0
-167.602 7.60345 801.585 -0.546695 0.103866 -0.825603 0 0 0
-167.582 12.416 801.085 -0.653946 -0.172842 -0.736348 0 0 0
-95.7413 43.0686 802.744 0.041791 0.37671 -0.925322 0 0 0
-101.03 42.4826 802.283 -0.0184012 0.47357 -0.880492 0 0 0
-91.0182 41.2227 802.196 0.0283145 0.358061 -0.933219 0 0 0
-89.2241 42.5609 802.954 0.0960216 0.449643 -0.88769 0 0 0
-83.0305 42.229 802.968 0.0377184 0.531603 -0.845962 0 0 0
-81.523 40.9562 802.283 0.0855133 0.477673 -0.873132 0 0 0
-76.9575 17.0146 803.809 0.173225 -0.658948 -0.730348 0 0 0
-73.9479 20.254 802.924 0.331845 0.0133222 -0.942772 0 0 0
-71.2282 19.9557 804.182 0.429378 -0.0884579 -0.897234 0 0 0
-70.3652 18.4912 805.21 0.384467 -0.37944 -0.840375 0 0 0
-70.8099 22.5734 804.033 0.40107 -0.128833 -0.906751 0 0 0
-68.5834 19.8197 805.562 0.431341 -0.208448 -0.877243 0 0 0
-67.3324 22.0672 805.741 0.447602 -0.184146 -0.874973 0 0 0
-72.6715 22.4181 803.299 0.356716 -0.0824075 -0.929836 0 0 0
-73.6703 24.1393 802.734 0.308255 -0.116425 -0.943967 0 0 0
-71.7513 24.4431 803.379 0.341599 -0.131554 -0.930422 0 0 0
-74.7043 25.8914 802.209 0.273439 -0.110401 -0.955395 0 0 0
-68.8803 24.3978 804.559 0.390808 -0.181352 -0.902363 0 0 0
-71.3526 26.6504 803.114 0.325573 -0.18784 -0.926627 0 0 0
-70.1777 28.6688 803.079 0.360027 -0.201481 -0.910878 0 0 0
-67.9238 28.1992 804.141 0.388837 -0.178715 -0.903675 0 0 0
-64.9232 27.3872 805.53 0.360953 -0.189738 -0.912273 0 0 0
-66.134 29.3753 804.725 0.366876 -0.122686 -0.921134 0 0 0
-63.1822 29.019 805.83 0.340869 -0.111801 -0.93135 0 0 0
-67.803 30.7216 803.805 0.406052 -0.0998008 -0.907403 0 0 0
-66.1844 31.7257 804.522 0.396856 0.00615186 -0.912714 0 0 0
-72.5398 49.9437 806.436 0.0484532 0.273107 -0.960712 0 0 0
-61.2961 26.0732 807.629 0.468217 -0.331333 -0.819032 0 0 0
-63.1705 25.2632 806.949 0.448506 -0.320314 -0.834111 0 0 0
-60.2838 30.7519 807.087 0.526572 0.285456 -0.798345 0 0 0
-58.5627 29.7139 808.339 0.58561 0.0662253 -0.807346 0 0 0
-70.051 42.4094 806.254 0.373611 0.370204 -0.849425 0 0 0
-65.3536 44.6297 807.701 0.244935 0.144697 -0.957888 0 0 0
-67.5287 44.7998 807.24 0.115355 0.0292522 -0.988307 0 0 0
-66.1675 46.6137 807.557 0.321819 -0.00482872 -0.944878 0 0 0
-61.8875 36.1043 807.218 0.569143 0.124677 -0.808298 0 0 0
-60.4647 37.8876 808.2 0.428778 0.127898 -0.894051 0 0 0
-172.009 27.8165 803.676 -0.731219 0.0678763 -0.678681 0 0 0
-80.8025 8.83176 807.346 0.435971 -0.220011 -0.871942 0 0 0
-81.6988 6.37753 807.531 0.405168 -0.26194 -0.875538 0 0 0
-79.3554 10.1831 807.724 0.257198 -0.274338 -0.925528 0 0 0
-90.1623 13.5632 806.382 0.153161 0.597366 -0.786068 0 0 0
-77.3912 12.6469 807.268 0.277082 -0.374989 -0.884288 0 0 0
-154.186 51.0108 808.803 -0.201383 0.706917 -0.677532 0 0 0
-152.084 52.0559 809.09 -0.269543 0.658836 -0.701936 0 0 0
-150.016 54.4472 809.768 -0.313065 0.461296 -0.829431 0 0 0
-149.13 56.3552 810.344 -0.293069 0.364142 -0.88373 0 0 0
-77.1141 6.31172 809.595 0.353866 -0.20337 -0.912115 0 0 0
-62.3129 16.0138 811.161 0.58735 -0.288831 -0.75476 0 0 0
-75.8586 67.6627 813.951 0.00625952 0.503108 -0.864069 0 0 0
-73.7516 67.2681 813.774 0.0438625 0.511366 -0.857806 0 0 0
-78.1231 68.5411 814.493 0.022905 0.554027 -0.831986 0 0 0
-57.5931 62.0852 813.789 0.460422 0.396382 -0.794003 0 0 0
-58.0709 64.2442 814.577 0.527252 0.324066 -0.78518 0 0 0
-65.0592 67.9934 814.544 0.162592 0.74544 -0.646006 0 0 0
-74.7112 70.9872 816.454 0.0494711 0.601348 -0.797423 0 0 0
-63.8552 69.2472 816.367 0.203033 0.69459 -0.690057 0 0 0
-58.8232 67.9984 817.099 0.318427 0.68527 -0.65421 0 0 0
-121.331 71.992 821.132 -0.103903 0.507203 -0.855539 0 0 0
-114.7 70.0518 818.715 -0.190573 0.595492 -0.780254 0 0 0
-112.687 71.0516 818.978 -0.198759 0.620267 -0.758546 0 0 0
-111.521 72.8291 820.141 -0.232388 0.621123 -0.747751 0 0 0
-110.627 71.4913 818.748 -0.223773 0.605052 -0.763994 0 0 0
-108.948 73.2687 819.636 -0.239162 0.593571 -0.768308 0 0 0
-104.143 73.6701 818.49 -0.232501 0.525673 -0.817972 0 0 0
-102.99 75.3698 819.32 -0.235527 0.629521 -0.738914 0 0 0
-95.9968 74.285 817.832 0.0308066 0.5212 -0.852332 0 0 0
-100.2 75.1683 818.499 -0.151221 0.471178 -0.864322 0 0 0
-98.1516 75.1425 818.198 -0.112046 0.393888 -0.911946 0 0 0
-95.9486 76.343 819.131 0.150049 0.603927 -0.779626 0 0 0
-103.414 77.1291 820.983 -0.137507 0.632294 -0.76045 0 0 0
-45.3527 49.5323 823.814 0.913627 -0.0253095 -0.405641 0 0 0
-71.9132 80.7491 825.878 0.244974 0.748236 -0.614548 0 0 0
-69.7962 78.6695 824.032 0.135534 0.742211 -0.655854 0 0 0
-65.196 78.8597 824.89 0.0626381 0.801863 -0.593527 0 0 0
-61.9994 78.3274 824.347 0.0454847 0.802005 -0.595104 0 0 0
-59.7577 78.5598 824.639 -0.0352364 0.755641 -0.653133 0 0 0
-77.0492 83.4816 826.645 0.138578 0.609593 -0.780482 0 0 0
-122.131 82.6074 826.98 -0.273565 0.387877 -0.880022 0 0 0
-120.987 84.3827 827.341 -0.276729 0.314276 -0.90774 0 0 0
-119.169 85.9892 827.242 -0.239828 0.243746 -0.939264 0 0 0
-118.163 83.793 826.432 -0.169577 0.285781 -0.942958 0 0 0
-116.18 83.8053 826.135 -0.127354 0.278552 -0.951842 0 0 0
-113.566 83.8984 825.855 -0.103784 0.292094 -0.950699 0 0 0
-115.207 86.3422 826.789 -0.0783066 0.331284 -0.939888 0 0 0
-114.564 88.2602 827.539 -0.0665912 0.40744 -0.91027 0 0 0
-111.217 84.5754 825.818 -0.112329 0.320557 -0.940404 0 0 0
-109.199 84.9812 825.683 -0.129618 0.318083 -0.93916 0 0 0
-113.114 85.8859 826.46 -0.0875111 0.340519 -0.935964 0 0 0
-111.078 86.6415 826.541 -0.103122 0.347738 -0.931785 0 0 0
-112.182 88.3255 827.359 -0.107684 0.385942 -0.91554 0 0 0
-108.272 88.5905 826.755 -0.157449 0.291154 -0.94351 0 0 0
-105.352 89.3184 826.532 -0.134133 0.259304 -0.956352 0 0 0
-106.058 91.509 827.219 -0.122049 0.24103 -0.96263 0 0 0
-104.071 91.736 827.047 -0.119241 0.258567 -0.958375 0 0 0
-96.3649 100.873 828.833 0.231896 0.342318 -0.910237 0 0 0
-99.3153 104.014 829.717 -0.307718 0.727707 -0.589066 0 0 0
-85.2911 95.068 830.526 0.336171 0.208966 -0.917579 0 0 0
-96.9524 111.578 833.254 -0.260212 0.40406 -0.87437 0 0 0
-94.2373 108.339 832.079 -0.0130513 0.342328 -0.939236 0 0 0
-95.0421 112.754 833.745 0.0429036 0.602698 -0.793521 0 0 0
-91.0405 113.599 834.016 -0.0104561 0.332418 -0.893815 0 0 0
-120.434 115.573 840.386 -0.525423 0.722798 -0.440106 0 0 0
-135.34 97.8477 840.69 -0.613755 0.640461 -0.449632 0 0 0
-132.229 102.473 841.559 -0.628287 0.397273 -0.668682 0 0 0
-131.364 105.033 842.178 -0.632737 0.368984 -0.680736 0 0 0
-129.8 107.876 842.273 -0.605722 0.395255 -0.690296 0 0 0
-127.26 110.528 841.905 -0.557427 0.512039 -0.653105 0 0 0
-124.515 111.783 840.491 -0.553591 0.580186 -0.596784 0 0 0
-89.7556 119.545 843.073 0.191104 0.743104 -0.6411 0 0 0
-91.154 120.774 844.104 0.16656 0.738616 -0.653126 0 0 0
-87.1224 119.241 843.671 0.287378 0.682516 -0.671698 0 0 0
-64.9988 102.189 842.531 0.628117 0.5882 -0.457959 0 0 0
-133.233 106.401 844.621 -0.613791 0.292574 -0.732907 0 0 0
-130.545 109.508 843.853 -0.520178 0.409443 -0.749013 0 0 0
-129.674 112.144 844.921 -0.443693 0.474895 -0.759573 0 0 0
-125.167 116.481 845.934 -0.428445 0.687092 -0.586584 0 0 0
-111.646 124.587 850.101 -0.136392 0.789905 -0.597789 0 0 0
-109.548 124.921 850.122 -0.130242 0.763815 -0.631655 0 0 0
-105.108 130.053 850.761 -0.554537 -0.304294 -0.772594 0 0 0
-102.861 129.565 849.437 -0.463474 -0.305799 -0.829971 0 0 0
-106.709 130.26 852.303 -0.774923 -0.104372 -0.611535 0 0 0
-106.708 132.263 852.185 -0.841799 -0.0574584 -0.531404 0 0 0
-92.8364 126.177 850.305 0.201217 0.866086 -0.441153 0 0 0
-170.911 -19.0353 778.753 0.037974 -0.639367 -0.767921 0 0 0
-168.5 -18.8097 778.698 0.0301531 -0.619578 -0.784216 0 0 0
-169.383 -15.5636 778.408 -0.0789645 0.370269 -0.92469 0 0 0
-167.083 -15.4474 778.244 -0.0921266 0.575212 -0.802546 0 0 0
-166.35 -18.475 778.781 0.292456 -0.6777 -0.668356 0 0 0
-168.821 -13.431 779.247 0.197065 0.52646 -0.818651 0 0 0
-188.33 5.49105 791.616 0.182766 0.869456 -0.458735 0 0 0
-179.27 2.34215 791.919 0.434856 0.764832 -0.474821 0 0 0
-185.109 4.55133 791.296 0.231645 0.835014 -0.498887 0 0 0
-181.411 3.64382 792.055 0.350993 0.754468 -0.554034 0 0 0
-126.286 15.3504 797.353 0.253084 -0.255743 -0.932803 0 0 0
-122.237 15.2736 798.323 0.184292 -0.192018 -0.963588 0 0 0
-119.792 15.1453 798.756 0.14371 -0.180357 -0.972948 0 0 0
-113.335 16.9781 799.031 0.0582974 -0.187365 -0.980397 0 0 0
-122.516 17.5441 797.851 0.219541 -0.155847 -0.96244 0 0 0
-119.69 17.8486 798.384 0.132707 -0.0923242 -0.98587 0 0 0
-125.884 20.9968 796.298 0.35182 0.00833142 -0.935653 0 0 0
-122.603 20.1009 797.599 0.281609 -0.0239119 -0.958128 0 0 0
-119.773 21.509 798.114 0.041084 0.0361339 -0.997738 0 0 0
-117.989 16.6105 798.733 0.067676 -0.140231 -0.986584 0 0 0
-117.611 19.5489 798.305 0.00983725 -0.152169 -0.987799 0 0 0
-115.94 16.6139 798.916 0.0916119 -0.203641 -0.974674 0 0 0
-111.954 18.6337 798.821 0.0628492 -0.158889 -0.984888 0 0 0
-114.546 18.9363 798.557 0.0906054 -0.184789 -0.978386 0 0 0
-115.506 20.8502 798.032 0.0581842 -0.17783 -0.981476 0 0 0
-112.952 20.947 798.392 0.102053 -0.122695 -0.986904 0 0 0
-111.913 14.0952 799.654 -0.0305201 -0.196645 -0.979094 0 0 0
-114.026 14.5766 799.536 0.0264113 -0.221049 -0.974304 0 0 0
-110.222 17.4258 799.056 0.00881674 -0.146108 -0.988849 0 0 0
-115.243 31.1785 798.795 0.0664732 0.172643 -0.982714 0 0 0
-110.753 23.3887 798.46 0.0964864 -0.0775251 -0.992125 0 0 0
-108.566 24.7258 798.556 0.00829004 -0.0488135 -0.998515 0 0 0
-106.375 25.9143 798.391 -0.0774581 0.00830992 -0.995984 0 0 0
-108.44 27.7068 798.537 0.0263934 0.0824114 -0.995724 0 0 0
-105.476 23.9594 798.256 -0.170465 -0.00080213 -0.984073 0 0 0
-113.097 30.7093 798.834 0.0591669 0.191302 -0.979709 0 0 0
-109.13 30.0045 798.877 0.0401736 0.200539 -0.978755 0 0 0
-105.801 29.9331 798.872 -0.0178049 0.215518 -0.975855 0 0 0
-101.422 28.7276 798.166 -0.0425167 0.322144 -0.940777 0 0 0
-124.297 34.7182 798.563 0.131162 0.227225 -0.964844 0 0 0
-112.317 32.7921 799.351 0.0832443 0.237063 -0.967843 0 0 0
-108.995 32.5704 799.482 0.0482931 0.264561 -0.962822 0 0 0
-105.211 31.8187 799.37 0.0228406 0.285112 -0.95813 0 0 0
-103.065 30.4694 799.009 0.0137144 0.309372 -0.950623 0 0 0
-122.073 35.073 798.892 0.0902821 0.187263 -0.978059 0 0 0
-125.073 37.9227 799.29 0.0857596 0.2699 -0.958837 0 0 0
-120.224 34.4082 798.939 0.0985067 0.176736 -0.979297 0 0 0
-114.905 33.6819 799.317 0.0979066 0.213215 -0.972075 0 0 0
-123.833 41.7966 800.668 0.0195072 0.440192 -0.896824 0 0 0
-101.483 31.7817 799.504 0.0605745 0.311829 -0.947838 0 0 0
-104.004 33.5066 799.912 0.0573847 0.280022 -0.957925 0 0 0
-122.235 37.4735 799.309 0.0528201 0.163947 -0.984771 0 0 0
-119.791 36.4975 799.335 0.0988706 0.152279 -0.983057 0 0 0
-120.236 38.5343 799.555 0.140047 0.152801 -0.97709 0 0 0
-122.194 40.4678 799.952 -0.0629668 0.395828 -0.912686 0 0 0
-117.687 35.3265 799.368 0.114679 0.183872 -0.976126 0 0 0
-117.411 37.508 799.837 0.168643 0.216326 -0.96059 0 0 0
-115.07 36.0457 799.814 0.111614 0.21872 -0.969377 0 0 0
-118.342 39.3803 800.11 0.207394 0.253223 -0.941871 0 0 0
-114.214 39.5142 800.838 0.104111 0.35971 -0.925242 0 0 0
-123.135 43.5676 801.723 0.0620225 0.526983 -0.847587 0 0 0
-122.307 45.3792 802.932 0.0646515 0.53082 -0.845008 0 0 0
-119.87 42.317 801.169 0.131029 0.492801 -0.858564 0 0 0
-116.72 41.6678 801.476 0.18774 0.463113 -0.865867 0 0 0
-104.281 44.1254 803.511 -0.119813 0.482995 -0.867316 0 0 0
-78.0967 23.1278 801.586 0.257876 -0.0909159 -0.961872 0 0 0
-76.6016 24.7674 801.82 0.25706 -0.0996261 -0.961218 0 0 0
-77.6426 27.024 801.286 0.242214 -0.104467 -0.964563 0 0 0
-65.3369 33.774 805.064 0.425274 0.0519306 -0.902372 0 0 0
-62.423 31.7426 806.191 0.44006 0.139457 -0.885702 0 0 0
-65.3872 35.7525 805.083 0.248636 0.13794 -0.957039 0 0 0
-67.1365 36.8861 804.939 0.378036 0.203145 -0.902124 0 0 0
-74.5592 43.3165 804.565 0.252869 0.417613 -0.870281 0 0 0
-72.1441 41.3963 804.714 0.406208 0.4409 -0.800255 0 0 0
-71.5994 47.4828 806.231 0.181072 -0.0559896 -0.976819 0 0 0
-71.8097 45.4369 806.277 0.32568 -0.0011796 -0.942003 0 0 0
-71.2627 39.6419 804.158 0.418696 0.421032 -0.804511 0 0 0
-130.76 52.9875 806.118 0.186608 0.53376 -0.824712 0 0 0
-121.49 48.3525 804.859 0.103195 0.516842 -0.84983 0 0 0
-119.434 49.1457 805.584 0.0985388 0.508929 -0.855147 0 0 0
-124.136 50.6628 805.959 0.136072 0.531495 -0.835935 0 0 0
-116.783 48.111 805.256 0.0886771 0.493445 -0.865201 0 0 0
-114.66 47.5864 805.203 0.0970869 0.45994 -0.882607 0 0 0
-171.649 7.94835 806.185 -0.725504 0.0276901 -0.681878 0 0 0
-171.978 10.3653 806.373 -0.79777 -0.0547852 -0.598816 0 0 0
-171.69 12.3059 805.605 -0.811116 -0.14718 -0.56587 0 0 0
-58.5628 22.9087 810.704 0.488232 -0.323976 -0.810286 0 0 0
-54.9934 22.6148 812.878 0.457266 -0.333236 -0.824519 0 0 0
-56.3094 23.7441 811.685 0.466543 -0.314255 -0.82677 0 0 0
-57.6715 25.4947 810.24 0.491396 -0.285565 -0.822734 0 0 0
-55.7377 25.9661 811.198 0.467013 -0.28635 -0.836407 0 0 0
-53.6255 26.6127 812.12 0.448484 -0.287099 -0.846265 0 0 0
-53.5077 24.5282 812.938 0.447279 -0.302609 -0.841594 0 0 0
-53.6015 31.2859 811.045 0.35517 -0.0886263 -0.930046 0 0 0
-54.393 33.132 810.595 0.343844 -0.0390272 -0.937372 0 0 0
-52.4367 33.4247 811.197 0.275547 -0.0588609 -0.958632 0 0 0
-53.9294 35.3461 810.677 0.314203 0.00501507 -0.94874 0 0 0
-51.6334 36.4772 811.385 0.245586 0.0582443 -0.96708 0 0 0
-54.7959 38.3134 810.586 0.323916 0.108853 -0.939222 0 0 0
-54.465 40.5043 811.051 0.329534 0.170267 -0.928095 0 0 0
-52.1604 40.1767 811.76 0.328046 0.215894 -0.919268 0 0 0
-53.9896 42.6575 811.751 0.375824 0.256328 -0.889048 0 0 0
-53.841 46.2885 812.748 0.471992 0.173137 -0.864373 0 0 0
-137.644 64.3635 818.252 -0.241538 0.82629 -0.505848 0 0 0
-139.74 63.7602 818.327 -0.197159 0.872315 -0.442633 0 0 0
-128.687 67.4495 818.834 -0.144142 0.589262 -0.79488 0 0 0
-107.834 77.8454 822.422 -0.196886 0.488369 -0.850057 0 0 0
-101.583 78.4386 821.724 -0.0883356 0.542543 -0.832449 0 0 0
-130.202 75.6533 824.968 -0.210073 0.628691 -0.748658 0 0 0
-126.616 75.6933 824.238 -0.162522 0.531777 -0.831078 0 0 0
-124.193 77.2498 824.709 -0.174455 0.509896 -0.842273 0 0 0
-117.321 75.72 823.077 -0.00138028 0.564661 -0.825083 0 0 0
-114.88 75.2438 822.746 -0.0611931 0.597585 -0.799271 0 0 0
-119.474 76.6066 823.672 -0.070787 0.474743 -0.877131 0 0 0
-115.899 76.8657 823.914 0.0776789 0.437377 -0.894981 0 0 0
-113.572 77.0206 823.645 -0.302329 0.411154 -0.856693 0 0 0
-114.697 79.1008 824.461 -0.146642 0.284397 -0.946765 0 0 0
-51.2414 97.5289 829.331 -0.185272 -0.121802 -0.96538 0 0 0
-120.178 106.333 832.629 -0.126076 0.727523 -0.633606 0 0 0
-118.156 106.965 833.525 -0.0666313 0.65856 -0.748592 0 0 0
-114.235 112.886 834.694 -0.203996 0.283177 -0.927901 0 0 0
-111.177 112.038 834.467 0.0850059 0.155242 -0.981481 0 0 0
-121.571 108.759 836.31 -0.384312 0.555451 -0.7361 0 0 0
-116.912 108.385 834.51 -0.123739 0.564115 -0.816089 0 0 0
-115.454 107.142 833.529 -0.0242435 0.539874 -0.840271 0 0 0
-115.273 111.033 835.154 -0.39237 0.0468635 -0.918293 0 0 0
-119.611 116.163 836.091 0.231565 0.784887 -0.530908 0 0 0
-116.523 112.987 835.66 -0.332561 0.0701797 -0.939926 0 0 0
-117.219 114.818 835.986 -0.138019 0.376841 -0.894069 0 0 0
-114.866 115.186 836.175 -0.0340486 0.775042 -0.630457 0 0 0
-111.332 106.582 833.097 -0.0731187 0.50097 -0.860214 0 0 0
-112.252 108.66 833.861 -0.102542 0.269194 -0.95602 0 0 0
-106.613 108.282 834.29 0.212984 0.3516 -0.907956 0 0 0
-109.316 107.891 833.584 0.105464 0.320562 -0.939912 0 0 0
-109.843 109.925 834.136 0.102241 0.291939 -0.950599 0 0 0
-112.912 111.107 834.333 -0.122895 0.133301 -0.98043 0 0 0
-107.468 110.179 834.632 0.148847 0.242094 -0.958586 0 0 0
-108.465 112.086 834.862 0.151414 0.218383 -0.963845 0 0 0
-101.328 109.711 833.988 -0.247221 0.345786 -0.90483 0 0 0
-103.296 110.424 834.719 -0.162534 0.217044 -0.962287 0 0 0
-103.045 112.834 835.139 -0.110105 0.246177 -0.96144 0 0 0
-101.059 111.963 834.645 -0.144241 0.374228 -0.913093 0 0 0
-109.597 114.006 835.162 0.191343 0.360841 -0.911151 0 0 0
-106.069 112.784 835.412 0.115444 0.310421 -0.941675 0 0 0
-111.984 114.461 834.888 -0.0981306 0.729051 -0.671187 0 0 0
-110.73 115.43 836.136 0.0180828 0.798168 -0.602005 0 0 0
-62.3235 87.1425 837.504 0.721022 0.251552 -0.645599 0 0 0
-62.354 89.2975 838.434 0.785687 0.0209304 -0.610234 0 0 0
-122.527 112.126 839.138 -0.469154 0.514382 -0.717566 0 0 0
-83.9059 117.231 843.178 0.387182 0.585417 -0.711985 0 0 0
-79.2246 114.33 842.641 -0.162296 0.846956 -0.50241 0 0 0
-82.2442 115.346 842.805 0.493072 0.505068 -0.707551 0 0 0
-81.3289 116.726 844.218 0.354579 0.412212 -0.834647 0 0 0
-76.826 115.506 842.696 -0.346845 0.610266 -0.711416 0 0 0
-120.202 117.741 843.731 -0.40775 0.74043 -0.533818 0 0 0
-111.648 119.772 842.193 -0.105609 0.893841 -0.434456 0 0 0
-108.883 119.634 841.944 0.0531629 0.882186 -0.46564 0 0 0
-81.7452 118.825 845.353 0.205159 0.591906 -0.774983 0 0 0
-78.1096 118.884 845.681 -0.0426018 0.669337 -0.739281 0 0 0
-62.7902 100.953 844.358 0.89021 0.158162 -0.425916 0 0 0
-120.631 120.872 848.329 -0.353844 0.757954 -0.547223 0 0 0
-110.954 123.028 847.84 -0.0942148 0.814551 -0.57217 0 0 0
-124.063 121.508 851.787 -0.47724 0.738239 -0.473482 0 0 0
-119.931 123.115 851.262 -0.319027 0.773412 -0.547512 0 0 0
-116.575 123.832 850.481 -0.254478 0.785527 -0.563838 0 0 0
-187.651 -20.1272 779.31 0.316114 -0.261812 -0.908846 0 0 0
-185.587 -20.1495 779.904 0.180976 -0.328521 -0.926034 0 0 0
-192.029 -17.4705 779.332 -0.18927 -0.223535 -0.952126 0 0 0
-193.222 -15.203 779.03 -0.00711333 -0.0214139 -0.999059 0 0 0
-177.171 -19.9369 779.546 -0.197039 -0.536921 -0.818568 0 0 0
-173.636 -20.0089 779.381 0.00520058 -0.60653 -0.794374 0 0 0
-182.662 -17.3605 779.253 -0.0339618 -0.217476 -0.974582 0 0 0
-195.428 -13.9632 779.208 -0.129027 -0.168046 -0.975584 0 0 0
-195.221 -9.26186 779.747 0.022092 0.403232 -0.914775 0 0 0
-197.284 -9.48113 779.565 0.0317471 0.430564 -0.901887 0 0 0
-189.989 -8.56291 780.206 0.035228 0.319908 -0.946775 0 0 0
-187.774 -8.23719 780.422 0.0662742 0.312281 -0.94753 0 0 0
-186.386 -9.86583 779.946 0.0977714 0.348322 -0.932064 0 0 0
-191.759 -7.23766 780.691 -0.0385459 0.376565 -0.925446 0 0 0
-188.839 -4.56978 781.651 0.0125934 0.33435 -0.941422 0 0 0
-186.512 -6.48474 781.277 0.169531 0.36485 -0.914705 0 0 0
-190.045 -2.50049 782.306 -0.0160453 0.283786 -0.957887 0 0 0
-185.276 -8.24767 780.732 0.120116 0.368304 -0.921893 0 0 0
-180.394 -9.70176 780.872 0.175526 0.372527 -0.911202 0 0 0
-184.274 -6.41511 781.623 0.121715 0.364952 -0.923014 0 0 0
-167.699 -20.5484 780.5 0.101364 -0.677812 -0.728026 0 0 0
-159.589 -15.7176 784.345 0.425137 0.747402 -0.509402 0 0 0
-164.255 -12.9652 783.98 0.497623 0.725882 -0.474227 0 0 0
-166.455 -11.7568 783.573 0.463684 0.73196 -0.49878 0 0 0
-172.171 -6.90313 784.688 0.459741 0.436473 -0.77029 0 0 0
-157.783 -39.2179 788.185 0.0546854 0.0896508 -0.992381 0 0 0
-152.801 -38.7622 788.878 0.178443 -0.218402 -0.958247 0 0 0
-172.785 -31.8046 789.733 -0.215996 -0.448518 -0.866013 0 0 0
-167.484 -31.8744 788.723 -0.224431 -0.176609 -0.957095 0 0 0
-167.173 -29.8111 788.337 -0.00846504 -0.233068 -0.972133 0 0 0
-161.358 -29.6459 788.774 0.222593 -0.00111821 -0.969695 0 0 0
-147.496 -15.3381 790.971 -0.0341128 0.568284 -0.81486 0 0 0
-138.017 -19.2256 792.725 0.359576 0.0566545 -0.931249 0 0 0
-143.092 -15.0736 791.848 0.378523 0.399654 -0.830435 0 0 0
-137.965 -16.4232 792.863 0.166239 0.387425 -0.901798 0 0 0
-144.926 -14.0612 791.257 -0.12197 0.866132 -0.424929 0 0 0
-154.24 -13.0681 791.305 0.295981 0.606672 -0.736958 0 0 0
-152.166 -13.6006 791.893 0.270817 0.652245 -0.699701 0 0 0
-150.44 -14.5971 791.343 0.117827 0.671045 -0.730006 0 0 0
-161.123 -12.2717 791.783 0.768424 0.625287 -0.120464 0 0 0
-166.364 -6.63512 792.124 0.348956 0.88631 -0.299582 0 0 0
-159.79 -10.8122 792.192 0.0212759 0.470816 -0.8765 0 0 0
-160.886 -9.06095 792.746 0.0692654 0.18879 -0.968575 0 0 0
-158.767 -9.07477 792.965 0.13574 0.338765 -0.92952 0 0 0
-156.441 -9.48402 793.09 0.136349 0.427408 -0.893064 0 0 0
-148.55 -13.6397 792.304 0.0560673 0.604536 -0.793263 0 0 0
-155.762 -7.62532 794.01 0.164785 0.373381 -0.912646 0 0 0
-159.409 -7.22888 793.562 0.189623 0.421906 -0.884909 0 0 0
-109.782 14.6147 799.46 0.0140055 -0.12432 -0.991859 0 0 0
-110.841 21.1681 798.597 0.0944389 -0.0774861 -0.992323 0 0 0
-158.602 39.7599 799.071 -0.0946117 0.586677 -0.803951 0 0 0
-157.095 38.4151 798.019 -0.0578388 0.561265 -0.825528 0 0 0
-148.931 39.7886 798.107 -0.115687 0.53284 -0.83826 0 0 0
-127.507 -1.90165 800.231 0.164374 -0.336423 -0.924518 0 0 0
-125.879 -0.779055 800.068 0.0333866 -0.29267 -0.953142 0 0 0
-125.201 1.59022 799.82 0.00902241 0.0895566 -0.988596 0 0 0
-125.265 6.66829 799.893 0.194112 -0.169032 -0.965973 0 0 0
-136.79 11.8367 799.014 0.102533 -0.434977 -0.447861 0 0 0
-130.725 11.6759 798.398 -0.0352655 -0.0763702 -0.987144 0 0 0
-127.741 10.5971 798.643 0.155785 -0.193709 -0.968097 0 0 0
-168.689 23.5564 799.654 -0.681507 0.155555 -0.714971 0 0 0
-168.475 26.8496 800.147 -0.645709 0.122381 -0.753404 0 0 0
-166.422 26.3607 798.332 -0.61936 0.160144 -0.768426 0 0 0
-166.656 28.7223 798.938 -0.610702 0.0918528 -0.786013 0 0 0
-169.143 30.586 801.032 -0.644348 -0.0175447 -0.76379 0 0 0
-166.804 30.8323 799.099 -0.600364 -0.0238539 -0.797875 0 0 0
-169.296 15.7284 801.657 -0.704393 -0.237462 -0.668821 0 0 0
-71.9916 36.4217 802.654 0.391002 0.189088 -0.899492 0 0 0
-69.83 36.4309 803.663 0.398673 0.244961 -0.883549 0 0 0
-74.7604 41.0763 803.278 0.285479 0.51601 -0.80741 0 0 0
-73.2007 39.2963 802.765 0.468443 0.447333 -0.760489 0 0 0
-88.8489 48.7288 805.331 0.0958115 0.180001 -0.976554 0 0 0
-86.7811 47.0326 805.194 0.0537379 0.167626 -0.983709 0 0 0
-86.284 49.1639 805.526 0.0284857 0.173566 -0.984322 0 0 0
-84.4467 49.9398 805.727 0.0370041 0.199852 -0.979095 0 0 0
-83.2015 47.8678 805.353 0.0320939 0.212449 -0.976512 0 0 0
-86.8257 52.0452 806.056 0.0266291 0.226657 -0.973452 0 0 0
-84.6796 52.4445 806.215 0.0432192 0.205141 -0.977735 0 0 0
-80.3729 47.4146 805.296 0.0226851 0.284229 -0.958275 0 0 0
-81.0069 50.1026 805.931 0.0507547 0.254335 -0.965472 0 0 0
-76.4429 46.6377 805.373 0.118872 0.261816 -0.957182 0 0 0
-78.3574 48.7225 805.76 0.0762638 0.256458 -0.963517 0 0 0
-82.563 51.5868 806.166 0.0672237 0.246956 -0.966647 0 0 0
-73.7865 46.6943 805.755 0.152701 0.194124 -0.968014 0 0 0
-125.523 -14.1371 806.244 0.688586 0.391104 -0.609246 0 0 0
-124.47 -5.04376 806.429 0.0676905 -0.928356 -0.353989 0 0 0
-121.981 -4.40964 806 0.183983 -0.910443 -0.367291 0 0 0
-120.266 -4.54031 807.612 -0.0382759 -0.939257 -0.336642 0 0 0
-121.45 -3.61976 804.268 0.160959 -0.912531 -0.374647 0 0 0
-116.97 -3.72302 806.089 0.230779 -0.809896 -0.538265 0 0 0
-115.002 -3.4618 806.519 0.211364 -0.790273 -0.575017 0 0 0
-112.826 -1.84931 805.213 0.182975 -0.737563 -0.649937 0 0 0
-110.803 -2.23548 806.17 0.135745 -0.727453 -0.672088 0 0 0
-105.372 -1.74978 806.577 0.0953006 -0.618047 -0.780169 0 0 0
-152.089 50.1804 807.308 -0.181718 0.670884 -0.718855 0 0 0
-112.481 -4.89556 809.538 0.0323088 -0.85196 -0.512554 0 0 0
-106.623 -3.76148 808.13 0.0330399 -0.691386 -0.721565 0 0 0
-147.261 57.3018 810.231 -0.190972 0.488981 -0.849573 0 0 0
-133.619 59.6509 811.722 0.0484136 0.737867 -0.673077 0 0 0
-132.174 58.215 810.283 0.0767686 0.726715 -0.682343 0 0 0
-128.867 57.9511 810.388 0.0891941 0.675512 -0.731746 0 0 0
-112.827 -8.56317 812.542 0.0376775 -0.590043 -0.805898 0 0 0
-109.335 -8.30624 812.289 -0.0597272 -0.598819 -0.797954 0 0 0
-106.762 -8.86573 812.396 -0.0802576 -0.550916 -0.829914 0 0 0
-112.655 -6.75232 811.343 0.040054 -0.556938 -0.828332 0 0 0
-75.5126 69.3072 815.133 0.0369994 0.600628 -0.798589 0 0 0
-73.0337 68.8803 814.951 0.0643647 0.596482 -0.799999 0 0 0
-69.728 70.4443 816.479 0.0767436 0.634608 -0.768847 0 0 0
-69.6227 68.711 815.041 0.0468793 0.629317 -0.775507 0 0 0
-67.2526 68.4105 814.858 0.0524165 0.700311 -0.710033 0 0 0
-66.9849 70.1262 816.55 0.106428 0.66713 -0.736802 0 0 0
-56.0012 62.9988 815.384 0.499244 0.457345 -0.734486 0 0 0
-54.645 60.9819 814.9 0.434182 0.477929 -0.754942 0 0 0
-60.0377 66.9262 815.266 0.350706 0.687083 -0.634823 0 0 0
-57.7326 66.2554 815.956 0.406005 0.579168 -0.704201 0 0 0
-45.9555 57.4334 820.824 0.823323 -0.0783068 -0.560124 0 0 0
-46.5107 61.3678 820.253 0.836911 0.143678 -0.525496 0 0 0
-49.4128 67.0675 820.525 0.549522 0.381062 -0.742862 0 0 0
-48.0609 64.9299 820.459 0.607175 0.40783 -0.677303 0 0 0
-66.9107 76.0584 821.703 0.097904 0.644932 -0.757913 0 0 0
-111.481 79.1997 823.869 -0.200541 0.353724 -0.913379 0 0 0
-104.905 78.5532 822.183 -0.121913 0.476033 -0.870771 0 0 0
-102.796 80.1642 822.807 -0.0751463 0.485359 -0.870866 0 0 0
-106.503 79.9929 823.223 -0.149015 0.428134 -0.890917 0 0 0
-104.08 81.7521 823.765 -0.0855167 0.425893 -0.900065 0 0 0
-98.9792 106.976 832.093 -0.165628 0.473892 -0.864397 0 0 0
-79.9575 96.8061 832.545 0.281247 0.194658 -0.939648 0 0 0
-86.3539 102.454 832.761 0.297869 -0.113383 -0.943189 0 0 0
-84.8267 104.248 833.234 0.395919 0.0382915 -0.915025 0 0 0
-85.7801 106.537 832.522 0.641088 0.362243 -0.662345 0 0 0
-99.1127 111.634 834.001 -0.243173 0.372955 -0.895198 0 0 0
-42.6926 51.7074 835.699 0.973391 0.101922 -0.205208 0 0 0
-68.3644 102.71 838.06 0.554611 0.374673 -0.741162 0 0 0
